ply
format ascii 1.0
comment VCGLIB generated
element vertex 1863
property float x
property float y
property float z
element face 0
property list uchar int vertex_indices
end_header
921.739 816.142 16.3765 
901.21 848.609 16.4006 
871.098 831.662 30.1093 
925.053 850.155 16.7506 
895.579 856.708 13.7747 
887.31 821.889 29.7657 
893.672 828.31 16.4722 
883.901 821.964 29.7001 
870.455 829.593 19.3162 
912.488 824.388 16.4355 
878.905 818.798 29.7275 
923.542 820.796 16.4467 
923.599 824.676 16.4799 
926.188 849.538 11.332 
896.142 841.824 26.6922 
921.601 824.697 17.5756 
884.333 822.078 29.7103 
896.777 842.794 16.4376 
918.147 853.093 8.01288 
931.454 834.071 16.1624 
928.074 820.309 13.8963 
891.577 857.636 10.7342 
914.28 808.989 8.05328 
873.343 843.701 30.2012 
899.82 812.145 16.4361 
875.759 852.198 14.2982 
888.344 858.463 26.6555 
876.896 832.015 32.595 
934.319 849.572 8.00932 
869.758 819.479 27.1651 
886.264 812.987 7.94969 
907.94 813.748 16.4012 
935.592 828.912 7.90263 
873.648 843.328 20.0995 
879.036 832.415 31.35 
898.268 851.052 17.5394 
906.714 810.741 13.2399 
914.35 828.693 16.533 
931.47 834.58 14.5756 
871.726 835.333 20.3508 
893.807 831.464 16.9729 
931.878 848.203 9.91296 
897.232 846.847 30.1917 
869.421 825.12 16.2177 
903.8 855.864 8.24017 
880.626 815.121 8.30625 
879.936 833.706 29.6533 
876.524 855.386 22.4208 
907.326 839.669 16.4581 
884.501 859.296 13.5131 
909.967 849.882 16.3841 
889.545 856.056 29.6975 
883.452 859.594 27.2507 
872.802 840.987 29.9456 
923.688 822.959 16.4548 
882.653 859.679 30.203 
878.498 839.237 30.8635 
919.433 819.804 17.7092 
878.505 862.615 7.90682 
908.681 816.913 16.4109 
894.139 833.274 22.6308 
897.174 848.247 30.1102 
920.963 848.669 16.3715 
883.707 816.145 14.3271 
936.474 845.531 8.18518 
931.802 815.086 7.8605 
887.639 858.597 24.2008 
914.901 844.172 16.4584 
919.163 840.381 16.429 
929.24 848.822 12.5592 
920.557 820.27 16.5145 
926.225 841.101 16.4018 
897.924 812.877 13.2382 
891.928 823.53 28.6013 
905.633 837.619 17.6793 
878.467 828.24 29.633 
904.696 854.297 16.3631 
918.835 847.072 16.3855 
911.555 806.032 7.89304 
896.485 843.563 18.3676 
881.968 836.6 29.657 
884.531 816.009 12.7191 
907.454 825.311 16.4653 
870.381 844.157 7.87488 
893.362 830.703 27.2681 
876.93 823.483 30.2211 
934.367 845.809 9.34396 
909.953 809.994 13.5161 
896.067 841.592 27.7097 
932.573 838.606 8.07018 
899.04 854.15 19.1483 
892.005 824.315 23.8926 
872.471 838.211 26.4055 
902.636 822.542 16.4845 
928.833 849.139 16.3851 
869.2 824.377 14.8979 
874.73 818.289 12.5686 
890.126 824.098 29.7603 
886.684 815.133 29.9023 
930.307 808.777 7.84767 
872.098 836.49 28.3035 
880.636 862.84 7.93653 
897.811 849.049 23.378 
871.031 831.336 27.2537 
888.491 837.606 29.7041 
898.91 812.613 12.0946 
898.756 821.209 17.786 
903.877 854.695 11.2154 
895.041 856.776 25.2941 
891.648 822.424 24.3026 
894.026 832.792 22.903 
891.372 816.185 16.3686 
923.518 811.152 16.3952 
891.617 822.753 25.1419 
897.701 848.643 21.5682 
883.771 816.185 10.7618 
884.589 859.302 24.6141 
917.733 838.295 16.4489 
910.714 826.618 16.5083 
876.259 850.728 29.6041 
924.582 810.919 16.3837 
903.356 829.587 17.7129 
870.504 829.735 10.1445 
918.146 808.044 11.7074 
907.296 810.777 14.5798 
924.028 850.137 15.6071 
889.35 815.535 29.8167 
893.661 858.253 8.23249 
933.76 845.745 16.4892 
869.615 825.169 29.6999 
919.338 851.157 13.3397 
889.597 814.78 25.9679 
921.152 850.887 16.9836 
898.841 853.687 18.3472 
927.672 849.193 9.50222 
926.661 815.466 16.5342 
886.69 835.857 29.6708 
920.538 804.383 8.03625 
901.569 855.287 15.3754 
902.211 853.678 16.3698 
880.935 822.58 29.661 
913.208 809.2 15.561 
888.481 815.031 22.5965 
907.772 844.679 17.272 
889.874 832.97 29.774 
875.797 852.312 12.3004 
908.535 850.11 16.389 
887.879 825.152 29.7395 
896.76 844.669 17.9793 
889.912 858.18 29.2391 
899.734 838.663 16.4526 
928.78 824.119 9.69875 
869.01 823.106 33.2828 
875.508 816.992 8.44418 
877.074 858.079 23.5378 
876.199 859.334 8.50235 
917.52 850.165 16.3644 
935.8 848.887 7.98971 
874.782 841.4 29.5972 
897.441 856.294 28.24 
893.558 835.467 29.7607 
892.609 826.77 23.6322 
870.115 827.999 15.5432 
932.308 838.278 13.6593 
922.087 804.816 8.35128 
896.33 842.788 24.4648 
905.133 821.486 16.419 
871.235 832.086 20.9602 
925.822 810.495 10.977 
885.31 859.388 29.6332 
891.82 818.54 16.3829 
869.669 825.317 29.9402 
886.821 828.057 29.7146 
877.273 859.478 8.14738 
902.43 821.987 17.146 
868.926 819.385 29.7801 
874.048 844.912 22.8839 
901.607 811.947 13.9982 
916.232 851.3 16.4537 
876.264 854.807 17.8845 
904.609 847.397 16.4453 
873.893 843.363 29.632 
889.876 815.151 19.4317 
926.435 815.371 16.4293 
883.483 859.545 10.4352 
869.748 826.827 16.7802 
882.498 822.18 29.6731 
930.409 842.924 16.4107 
933.643 844.784 16.9635 
876.065 853.437 13.2548 
894.025 810.846 7.91054 
906.176 836.98 16.5084 
871.135 831.556 17.2213 
918.049 832.231 16.4996 
912.35 823.76 16.4306 
928.242 822.314 16.6558 
918.586 851.307 11.7805 
928.559 822.396 12.6277 
919.22 811.839 16.3429 
875.509 818.124 12.4167 
898.614 812.676 14.069 
899.225 808.789 7.914 
927.689 813.031 10.5085 
875.147 818.221 18.6861 
875.407 818.109 28.0033 
874.653 847.485 26.153 
875.473 850.95 19.4446 
929.365 815.758 9.48812 
898.857 828.51 16.4801 
894.676 856.873 19.42 
925.841 830.994 16.4948 
929.617 848.138 16.3889 
912.415 849.276 16.376 
894.476 838.645 29.758 
907.939 828.483 16.4966 
917.717 851.454 11.3619 
896.594 844.288 21.586 
894.31 856.998 9.97086 
889.893 815.155 27.2691 
895.92 813.29 12.996 
872.756 818.688 14.7404 
926.173 804.05 7.82676 
895.841 818.007 16.3865 
880.547 814.651 8.12571 
868.662 821.769 30.2722 
876.498 855.269 26.6528 
875.169 849.917 24.6924 
868.2 827.641 8.0197 
904.563 854.515 11.5733 
924.158 823.026 16.4659 
871.296 819.09 19.2528 
872.674 815.378 7.91424 
932.42 848.252 16.2901 
930.162 820.09 8.80754 
874.128 832.63 33.2996 
889.923 815.209 26.0873 
873.239 855.111 7.94306 
878.727 817.317 25.5328 
883.597 854.57 29.6549 
933.901 845.056 13.1681 
873.532 842.27 9.61642 
879.578 860.446 10.063 
917.279 833.63 16.4855 
875.431 850.818 25.1732 
891.444 822.172 17.2533 
867.357 823.467 10.4692 
904.002 838.122 17.7564 
869.472 835.812 9.95518 
927.193 806.852 8.14377 
932.531 838.204 16.4588 
891.968 818.217 16.3776 
876.878 832.299 33.5828 
920.832 806.245 9.62894 
876.305 854.598 16.6828 
870.509 834.41 8.27166 
892.704 830.402 29.7594 
924.315 830.443 16.4867 
929.795 814.318 8.35819 
877.289 858.792 11.2334 
909.532 809.881 16.4072 
876.415 817.909 22.0735 
876.936 845.214 29.6052 
934.96 840.733 8.07691 
872.005 849.028 7.96012 
931.185 815.947 7.87129 
884.978 859.163 8.92013 
873.995 844.755 20.0016 
883.056 859.63 19.5869 
897.725 845.708 29.1102 
906.308 821.765 16.4266 
930.959 832.206 15.8521 
927.159 815.445 16.5066 
894.57 835.937 29.9718 
893.379 829.555 29.2485 
917.279 826.779 16.5253 
900.806 831.608 16.8052 
891.743 858.48 8.30724 
898.611 852.259 24.0486 
883.333 850.345 29.6542 
872.043 818.907 11.4177 
902.875 811.631 12.9319 
915.081 852.012 8.84782 
876.03 817.98 26.0297 
872.343 818.802 18.4393 
900.601 856.965 8.05788 
918.86 819.22 17.7572 
898.428 825.843 16.4429 
888.536 858.352 14.8501 
900.335 812.286 8.82042 
871.689 844.439 10.8371 
928.649 822.616 11.7843 
905.508 811.189 14.0789 
921.612 850.592 15.2914 
871.666 834.719 13.2711 
933.377 841.68 9.39905 
903.479 826.316 17.1863 
879.485 839.06 32.7957 
902.789 817.461 16.3956 
870.882 831.492 19.9552 
912.933 820.142 16.424 
868.771 822.646 24.434 
928.197 818.311 10.745 
875.224 818.132 33.3628 
879.383 860.208 29.5769 
928.853 824.472 16.8962 
936.241 835.693 7.95653 
893.699 822.634 16.419 
927.21 814.173 10.1049 
872.405 845.116 10.8416 
879.196 831.729 29.6769 
925.94 833.583 16.4662 
927.846 815.628 9.22462 
877.824 817.485 18.4393 
878.401 832.178 33.5649 
868.218 835.843 7.80121 
872.628 839.291 16.5146 
870.77 831.044 26.9259 
881.708 859.958 25.5935 
925.718 843.81 16.3878 
902.511 855.167 15.6002 
869.948 828.769 8.09863 
908.313 853.72 12.5634 
916.794 848.827 16.4031 
907.133 814.662 16.388 
875.909 852.746 8.9897 
917.384 813.541 16.3723 
875.506 850.982 26.419 
878.557 860.942 8.09155 
915.263 814.926 16.3905 
904.939 828.242 16.4772 
906.809 820.724 16.4051 
890.685 818.768 19.3318 
885.385 815.816 10.2601 
869.728 826.635 19.1293 
899.939 829.968 16.517 
918.189 849.524 16.3644 
930.966 832.665 14.7858 
929.281 825.464 13.5562 
873.224 816.671 8.61849 
904.338 825.052 16.4711 
883.241 829.063 29.6567 
934.016 832.532 8.00813 
881.515 816.094 8.06473 
897.253 831.006 16.5106 
909.983 809.978 11.1397 
876.163 854.018 14.0396 
917.198 808.289 13.8797 
909.596 853.726 8.23828 
875.809 818.03 14.6597 
909.794 812.667 16.3491 
872.803 851.281 8.17434 
877.039 857.687 9.03076 
874.301 846.099 22.531 
877.262 858.567 19.1279 
920.192 849.896 16.3429 
872.475 837.386 24.0091 
914.185 824.366 16.4724 
866.209 818.797 7.80774 
926.109 812.137 11.4687 
890.491 816.241 29.9748 
893.594 848.354 29.8549 
870.8 819.25 26.1718 
902.377 807.909 7.9617 
881.134 831.753 29.9125 
872.046 835.994 13.521 
893.013 828.714 21.2015 
873.952 825.032 34.2826 
872.345 837.661 32.9508 
876.115 853.984 16.9756 
869.644 822.979 30.9921 
911.746 809.339 16.9666 
893.554 830.87 18.9043 
890.194 816.67 18.5243 
869.717 819.47 23.0773 
921.623 824.715 16.6129 
891.738 823.201 19.2344 
878.579 835.256 33.5365 
890.976 818.093 30.2069 
875.415 850.68 11.0599 
921.532 824.304 17.5917 
892.729 813.677 8.13498 
898.945 853.848 23.0416 
871.629 819.02 14.5901 
919.995 850.892 16.5748 
924.449 806.421 16.2144 
910.432 849.128 16.3745 
897.572 856.155 25.1917 
875.579 818.092 13.258 
872.195 837.143 13.4201 
886.958 815.415 11.9697 
875.227 850.048 13.6825 
867.227 822.97 9.93189 
909.08 848.398 16.3895 
922.413 836.985 17.7626 
893.65 813.856 10.5295 
881.768 860.379 30.1215 
897.272 845.165 29.7015 
896.281 841.584 29.528 
869.614 826.157 13.6156 
902.963 841.21 16.5226 
874.081 850.925 8.51556 
920.979 844.622 16.4198 
916.799 821.118 17.0771 
920.747 840.636 16.4653 
873.4 841.617 29.6653 
932.357 848.114 13.8637 
934.846 840.58 9.56566 
928.518 848.004 16.3453 
934.128 846.196 12.5739 
876.382 854.779 11.4548 
873.762 831.034 29.5788 
905.213 837.007 17.6958 
894.04 812.846 8.23632 
905.806 811.099 15.0645 
893.404 823.451 16.4238 
918.585 812.022 16.3368 
908.096 842.483 16.4481 
932.713 833.051 8.39131 
926.072 811.932 13.6528 
892.456 826.564 18.3417 
877.439 858.815 20.4343 
870.207 836.654 8.1867 
915.247 832.024 16.5279 
873.299 818.603 8.83331 
915.992 808.555 8.37361 
876.036 853.331 18.7974 
894.055 833.264 21.7613 
896.889 843.849 29.851 
871.081 832.258 10.7033 
901.116 855.351 9.13128 
915.468 840.704 16.4324 
892.811 814.041 12.9215 
921.285 849.488 16.3541 
890.924 827.662 29.7337 
926.55 812.775 16.5226 
869.122 823.938 17.553 
917.878 851.491 15.6465 
876.011 832.193 33.6218 
929.068 824.51 12.7427 
929.208 818.226 11.2256 
896.557 856.451 20.2134 
893.02 827.515 16.5668 
895.871 827.911 16.4722 
894.778 834.734 29.8622 
884.987 859.161 13.9725 
904.395 854.642 10.3847 
874.529 847.074 16.3051 
890.182 850.353 29.6981 
902.503 822.089 16.7444 
892.105 824.835 20.3875 
884.849 860.656 8.07258 
934.086 847.576 16.617 
869.735 826.596 17.8864 
872.548 839.455 29.6307 
898.074 827.775 16.4693 
904.061 809.448 8.01384 
909.405 834.751 16.8774 
890.793 818.963 28.1605 
868.804 825.951 8.13618 
907.615 840.475 16.4486 
870.577 819.297 23.5287 
891.656 822.873 28.4579 
884.373 818.017 29.7734 
882.845 830.013 29.6448 
899.758 836.224 16.4843 
928.921 823.141 16.3781 
887.855 858.822 30.2208 
876.825 856.789 25.4034 
870.039 819.404 33.4193 
908.276 849.516 16.3875 
920.758 807.643 16.7066 
928.784 824.203 9.04078 
891.087 820.506 17.1669 
892.703 857.394 10.721 
930.355 839.723 16.4251 
919.047 807.833 9.57017 
933.683 842.165 11.0902 
899.317 845.439 16.3811 
895.765 848.209 29.7515 
868.414 819.737 21.3643 
900.919 832.253 17.7924 
875.414 852.603 30.1715 
917.451 826.146 16.4924 
896.867 847.403 29.7945 
882.578 839.159 29.6337 
896.614 856.251 30.0817 
914.955 806.529 7.99997 
899.677 855.974 29.8463 
881.058 861.064 8.29324 
883.952 859.591 29.2747 
916.473 851.993 8.30866 
923.934 811.097 16.3923 
930.413 823.082 8.34068 
868.412 819.774 30.7968 
895.062 837.318 25.7523 
870.603 830.338 28.609 
894.717 835.844 22.2143 
873.58 842.992 12.3977 
933.214 842.218 15.203 
920.625 830.809 17.7722 
936.565 842.864 8.20002 
887.316 858.646 15.2069 
877.438 817.616 14.4625 
904.496 847.168 17.8035 
871.962 836.106 16.5331 
869.421 825.174 11.9545 
896.989 845.583 17.8972 
912.985 816.28 16.3812 
926.085 811.826 9.09601 
867.13 826.031 8.42189 
922.564 850.588 8.12265 
886.672 812.984 7.99921 
915.033 819.24 16.3832 
869.572 819.504 30.7507 
891.491 821.675 29.0245 
888.218 830.897 29.6949 
877.382 859.355 12.836 
897.535 812.916 13.1048 
912.588 830.843 16.562 
891.874 829.077 29.7248 
874.479 846.758 22.4911 
890.748 818.903 22.1558 
895.337 838.946 28.1872 
881.905 859.966 13.637 
894.781 851.004 30.1607 
927.566 849.281 8.4219 
884.049 839.889 29.6534 
874.812 847.905 24.2098 
905.113 854.747 16.9812 
911.879 846.52 16.4054 
923.495 806.978 16.946 
879.861 860.392 21.4872 
873.223 841.618 15.8415 
914.27 844.131 16.4255 
881.87 853.483 29.6288 
875.54 831.884 30.3631 
895.224 838.501 21.6324 
930.244 829.655 11.5933 
870.424 819.315 15.9669 
882.039 859.881 16.2833 
865.927 824.646 7.84687 
921.17 831.777 17.7605 
878.416 861.502 8.04728 
882.966 842.281 29.6486 
884.241 816.04 16.7561 
932.802 827.288 7.9783 
872.38 818.786 14.6708 
867.364 828.624 7.94809 
930.25 838.111 16.4279 
894.252 839.851 29.7445 
894.659 818.453 16.3823 
895.845 840.079 29.2327 
887.925 858.387 10.809 
887.389 828.515 29.706 
870.854 831.187 17.8558 
875.432 850.821 13.2866 
886.175 817.221 29.7555 
885.287 859.128 18.5246 
920.78 850.823 12.8463 
870.606 830.232 8.85968 
878.197 862.207 7.91622 
899.583 839.64 16.4426 
904.801 806.769 7.92965 
891.954 850.532 30.0695 
915.719 808.668 15.5101 
904.86 854.75 16.2785 
889.254 843.873 29.6986 
892.704 826.231 29.7669 
881.335 816.743 10.842 
922.185 807.17 14.7392 
899.956 839.985 16.4392 
906.726 840.181 16.8126 
937.008 842.085 7.988 
890.8 819.2 17.4776 
926.168 812.241 8.70329 
895.468 856.738 12.1352 
872.434 818.815 19.6562 
867.368 822.849 8.44141 
932.736 834.811 8.25784 
874.158 844.889 23.7219 
928.133 810.732 10.0798 
903.936 815.889 16.3711 
912.007 852.853 12.0158 
910.09 825.39 16.4896 
884.507 859.44 30.2366 
936.124 831.86 8.01346 
891.238 821.256 17.5889 
869.734 838.985 7.95513 
899.632 844.715 16.3887 
882.265 819.272 29.7647 
897.036 816.828 16.3714 
871.221 833.196 12.3863 
885.918 860.591 7.99503 
870.534 829.93 10.348 
890.783 846.229 29.7024 
925.079 843.229 16.4163 
909.507 810.123 12.775 
894.842 836.23 22.1828 
872.786 824.632 29.5963 
917.486 820.165 17.7789 
892.32 824.614 30.2295 
890.975 819.024 29.6393 
871.396 839.107 8.53332 
880.004 826.33 29.6302 
891.178 820.773 23.5007 
924.231 814.136 16.3808 
893.154 827.972 29.6875 
879.313 860.552 26.1515 
889.069 844.81 29.6887 
897.01 845.715 19.8457 
875.285 850.197 20.538 
890.097 816.116 20.2637 
894.005 833.341 27.5204 
876.985 857.52 26.0985 
927.712 815.325 8.76632 
931.848 818.599 7.83234 
869.287 837.516 7.90059 
897.249 834.498 16.5418 
928.542 827.596 16.564 
903.346 828.728 17.691 
868.835 822.505 24.8101 
909.259 830.444 16.5321 
892.27 814.168 9.88381 
890.656 818.533 30.2197 
882.95 859.683 24.7708 
894.658 856.925 16.4675 
915.077 821.679 16.4541 
928.953 824.638 10.4113 
893.396 837.18 29.7866 
905.684 835.773 17.1813 
871.694 835.032 33.4365 
917.638 851.532 11.8979 
871.8 824.683 29.5907 
897.63 848.531 20.4368 
932.814 826.939 7.9514 
921.958 807.116 15.5554 
894.484 834.834 18.8658 
877.563 860.151 15.8954 
873.99 844.717 19.4572 
884.203 816.446 29.783 
865.363 818.537 7.84023 
901.786 811.924 12.7736 
932.133 837.488 15.088 
906.943 845.955 17.7184 
894.087 857.753 8.18213 
888.404 843.076 29.6865 
870.868 834.86 8.22132 
928.175 818.075 10.1711 
903.824 841.098 17.7787 
876.966 857.46 14.4231 
869.92 827.224 12.7868 
894.979 837.623 24.1152 
893.124 840.841 29.7324 
907.346 854.018 15.8257 
913.839 806.737 7.99029 
911.53 809.639 11.0279 
876.761 856.427 21.4068 
911.486 833.705 16.5026 
908.476 836.561 16.4616 
874.697 848.002 11.6517 
896.647 854.819 29.7667 
929.026 824.896 10.7045 
869.554 819.487 20.757 
909.352 842.409 16.4206 
919.289 807.686 15.9499 
904.709 840.452 17.7298 
885.074 859.178 23.443 
880.236 860.386 28.9304 
884.437 859.342 21.7268 
919.405 844.945 16.4195 
910.593 806.493 7.93116 
922.482 818.437 16.4016 
892.004 854.029 29.7252 
895.624 845.919 29.7546 
870.141 828.54 30.2228 
884.208 859.406 23.7614 
898.958 854.818 18.0176 
893.048 828.666 27.5861 
871.032 832.416 29.1732 
912.104 845.382 16.4088 
894.035 833.382 23.7291 
890.373 827.729 29.7154 
930.615 831.066 13.0908 
882.152 859.824 16.7415 
928.349 842.988 16.4196 
879.055 830.385 29.7999 
903.035 809.141 7.95431 
876.119 817.938 12.3606 
920.023 811.859 16.3485 
909.991 816.649 16.387 
882.287 814.657 8.16443 
930.851 815.896 7.88604 
922.595 814.605 16.3902 
918.196 840.796 16.4138 
931.565 835.82 16.9606 
899.109 824.392 17.2226 
879.588 834.804 32.2439 
903.808 844.685 17.627 
903.699 836.414 17.7445 
885.162 843.562 29.6612 
898.433 851.496 21.6307 
890.951 857.8 10.4816 
913.606 854.262 8.01663 
871.164 833.517 29.6082 
882.126 816.534 23.7276 
926.705 814.781 12.8796 
925.999 806.287 8.69604 
896.217 842.17 20.8699 
893.153 843.335 29.7373 
917.247 820.052 17.7922 
903.053 824.401 17.372 
907.975 853.778 11.2736 
900.38 808.537 7.95337 
893.973 857.1 13.6184 
873.065 843.295 8.16289 
893.536 831.059 28.122 
877.135 824.837 29.6314 
890.449 814.434 8.32364 
914.035 851.924 16.3838 
934.818 847.413 16.9635 
894.45 848.4 29.7404 
895.801 839.624 16.8908 
874.055 844.888 26.4766 
871.876 835.752 16.4681 
892.451 857.763 29.7669 
903.619 811.226 16.2422 
903.815 811.275 15.9254 
894.716 835.829 21.7873 
876.406 821.305 33.2083 
927.151 816.249 12.2776 
874.768 848.049 20.2739 
893.004 828.007 28.5791 
906.304 854.206 10.5357 
932.966 843.999 16.3992 
877.446 832.431 33.5422 
910.259 841.788 16.4314 
886.794 815.531 20.308 
905.284 854.417 10.3627 
887.896 850.465 29.6633 
889.109 851.174 29.6943 
884.779 815.988 22.1927 
888.961 856.336 29.6926 
878.852 828.6 29.6187 
896.566 844.352 17.6099 
878.716 860.707 21.8016 
881.042 816.811 21.2051 
868.655 821.112 24.1209 
882.653 841.106 29.6284 
892.517 857.434 17.3888 
865.323 819.295 7.8213 
913.249 822.565 16.4472 
892.497 826.32 22.8266 
904.148 816.237 16.378 
876.333 854.555 21.3738 
924.585 837.507 16.6806 
869.301 824.609 23.6279 
874.198 846.292 29.4699 
876.22 862.735 7.91773 
905.606 810.993 13.0485 
876.863 856.751 20.0934 
897.822 825.225 16.448 
920.77 815.289 16.3706 
926.841 839.124 16.428 
910.857 853.107 14.4829 
927.719 846.85 16.3541 
891.091 834.962 29.7514 
898.797 837.437 16.9378 
874.989 849.389 8.09526 
929.994 828.252 8.50764 
920.675 810.736 16.3495 
925.401 809.137 14.3804 
900.75 843.16 16.4248 
897.079 849.835 29.7785 
868.182 819.925 16.6404 
872.065 836.547 12.0486 
877.567 860.302 11.1475 
898.311 817.664 16.3903 
917.444 831.464 16.5071 
933.146 847.868 13.2044 
911.765 845.031 16.4085 
890.105 858.023 18.0663 
933.676 847.997 16.4051 
896.638 844.665 27.7008 
875.553 850.753 29.948 
895.526 839.15 26.2221 
871.087 839.496 9.71252 
892.938 828.208 23.2104 
887.096 851.166 29.665 
872.21 837.131 26.2106 
869.762 819.504 23.7997 
930.602 831.12 13.7197 
885.114 828.717 29.6871 
875.36 849.557 27.7367 
879.717 821.241 29.9005 
909.445 840.835 16.4427 
870.96 819.183 28.5684 
876.694 856.164 24.163 
907.759 823.406 16.4367 
882.681 837.448 29.656 
894.026 833.48 20.5078 
918.095 808.081 8.97004 
881.508 839.925 29.6388 
895.868 840.7 27.7933 
891.217 857.714 19.6625 
871.702 833.867 33.4714 
900.251 847.294 16.3766 
915.832 807.268 9.38886 
867.443 826.353 11.7115 
877.154 854.218 29.5642 
901.628 852.846 16.3544 
917.547 851.57 13.063 
914.512 848.3 16.3868 
880.99 860.082 8.9239 
875.797 841.125 29.6117 
907.648 810.808 8.85892 
925.834 807.416 11.1171 
876.197 855.583 30.2199 
876.517 840.814 29.6183 
893.483 857.23 22.4519 
900.867 831.917 16.6863 
924.67 805.134 8.03841 
883.753 859.974 8.3203 
894.531 829.603 16.4806 
884.227 859.405 14.5722 
891.71 825.464 29.7849 
915.212 824.681 16.4679 
895.588 834.27 16.5319 
896.964 854.145 29.7676 
918.954 851.188 13.773 
869.312 829.636 12.1151 
916.487 830.245 16.5525 
889.831 814.981 27.0345 
880.07 860.32 9.2982 
887.531 812.291 8.01837 
902.176 820.69 16.7086 
896.767 838.744 16.4551 
894.829 813.184 16.7718 
883.502 828.626 29.6736 
912.826 823.298 16.4474 
927.622 804.722 7.83342 
925.398 822.097 16.4578 
869.725 826.721 11.5491 
875.972 853.049 14.6171 
888.326 826.638 29.7199 
912.819 852.685 11.6732 
928.802 843.92 16.3832 
932.604 844.976 16.3945 
933.073 845.261 16.4065 
872.892 840.086 27.7833 
871.064 832.109 21.8243 
911.353 846.236 16.3914 
894.762 818.78 16.3874 
880.274 837.487 32.9678 
874.403 832.53 30.9027 
896.413 845.61 29.7889 
914.015 806.328 7.90981 
889.732 858.019 12.0531 
897.748 848.832 20.7854 
874.37 846.434 14.9619 
909.275 806.057 7.98122 
928.165 849.051 9.70907 
872.777 839.547 20.5935 
873.868 840.33 31.2073 
893.355 830.516 17.3838 
881.892 859.327 29.6345 
933.421 832.766 8.30901 
882.007 816.578 22.7379 
876.174 832.196 32.1024 
873.492 842.07 27.8602 
874.486 846.213 30.1726 
892.089 829.332 29.7379 
898.797 838.98 16.4752 
878.381 817.316 21.2714 
898.405 856.016 24.933 
910.71 853.513 16.693 
913.68 830.187 16.5382 
877.937 816.248 8.29909 
875.586 818.101 25.1405 
926.394 837.718 16.4531 
891.876 823.776 24.1027 
932.995 843.178 16.4258 
870.959 836.843 10.2112 
873.419 842.035 9.89011 
890.719 819.032 20.1304 
910.23 806.252 7.94134 
889.785 814.931 19.3125 
925.351 830.667 16.4813 
896.469 835.248 16.5322 
885.708 822.995 29.7343 
900.72 812.155 8.77788 
921.54 835.843 17.7916 
930.217 830.788 16.5713 
911.088 809.716 14.1433 
888.745 814.969 25.7523 
904.066 844.969 17.8187 
920.782 815.954 16.3807 
886.042 853.211 29.664 
874.523 818.315 13.2516 
880.407 860.241 12.896 
878.276 860.837 15.4077 
905.197 811.189 15.3007 
903.994 854.876 16.0383 
892.893 822.334 16.4136 
890.941 814.48 14.0019 
896.02 856.646 28.8436 
868.156 820.643 30.2514 
876.201 820.314 33.4728 
897.597 817.827 16.3847 
927.495 817.58 11.201 
876.597 855.804 18.6276 
877.211 817.693 25.705 
886.658 856.416 29.6673 
878.702 819.29 29.7206 
898.018 849.477 17.647 
928.699 825.472 9.31225 
891.779 835.127 29.7387 
928.889 831.928 16.4556 
895.84 840.482 27.9226 
929.364 811.538 7.9011 
933.116 821.426 7.8825 
904.474 808.946 7.95194 
886.373 858.831 8.86163 
924.304 849.966 9.54436 
895.836 840.446 19.8097 
869.711 826.623 12.4534 
883.687 859.558 14.4321 
874.023 819.21 34.2835 
869.844 829.96 8.26079 
905.539 834.962 17.6434 
921.458 820.993 16.4316 
889.903 814.856 29.2029 
935.466 844.424 10.59 
872.464 838.345 28.6027 
907.547 849.922 16.375 
878.685 817.27 27.8086 
918.977 839.614 16.4344 
915.743 823.66 16.4494 
887.008 815.407 8.93548 
876.306 842.63 29.5948 
880.779 816.929 18.8096 
921.717 825.399 17.6865 
886.969 858.706 14.998 
876.956 858.662 29.7766 
876.672 817.839 15.1867 
881.411 848.288 29.6252 
894.419 831.875 16.5144 
914.373 823.147 16.4451 
926.761 807.523 11.1927 
928.541 809.857 8.23254 
872.051 841.958 11.4575 
913.181 852.604 14.3879 
928.706 824.098 16.7039 
881.94 849.787 29.6302 
877.11 817.681 23.3453 
929.113 848.86 11.4776 
877.483 817.617 25.5342 
935.171 839.482 7.97414 
934.859 833.779 8.88723 
914.305 850.329 16.3439 
874.106 845.289 18.6757 
872.776 838.895 13.9535 
889.729 814.75 14.7959 
901.145 809.27 7.92315 
918.453 821.7 17.7666 
930.044 845.535 16.3961 
893.655 831.303 19.0683 
875.674 851.697 9.4971 
882.689 854.44 29.6408 
882.629 842.305 29.6413 
927.396 845.255 16.3565 
872.39 838.048 13.2534 
904.278 829.674 16.6147 
892.012 824.218 25.5284 
875.87 850.779 29.5955 
890.614 818.56 19.7614 
917.742 825.214 17.7846 
896.797 856.35 23.7924 
883.926 858.575 29.6288 
929.809 830.277 16.5211 
924.655 806.469 8.33733 
926.183 812.569 10.4353 
877.033 824.304 34.3596 
928.666 848.986 13.1649 
921.16 850.702 13.2089 
903.516 819.756 16.401 
871.173 832.969 28.8396 
870.964 820.133 34.2154 
930.033 827.36 17.005 
906.227 810.715 16.0761 
868.515 821.486 12.8723 
923.647 814.292 16.3935 
901.511 849.239 16.4677 
911.291 807.139 7.95337 
895.693 843.571 29.7566 
927.768 818.863 10.7869 
893.894 832.33 25.6482 
872.097 850.822 7.90973 
885.536 841.156 29.6661 
908.227 819.245 16.4084 
934.101 846.326 13.7471 
903.139 854.954 8.63302 
873.657 840.473 30.0334 
868.892 822.934 20.1602 
929.816 837.27 16.4441 
877.676 860.562 11.5611 
904.783 811.317 8.54869 
931.472 834.86 15.1012 
887.354 854.386 29.6821 
875.615 814.989 7.86442 
914.036 840.046 16.4579 
884.119 857.117 29.6392 
899.983 828.229 17.555 
922.194 850.478 13.2974 
892.159 856.33 29.7386 
910.293 850.068 16.3785 
929.983 848.501 16.4809 
889.892 815.152 26.4552 
931.095 833.017 9.48352 
881.086 832.343 29.6403 
884.031 814.398 8.13168 
913.586 835.779 16.4862 
887.612 830.182 29.8757 
923.923 806.706 8.38491 
891.953 857.52 24.3777 
932.958 841.413 11.7086 
903.467 839.439 17.7727 
875.565 851.339 23.9952 
935.432 847.598 9.12657 
932.637 843.899 16.3857 
881.441 816.544 29.1106 
915.301 812.665 16.3671 
871.559 819.06 25.9869 
893.067 844.043 29.741 
874.494 846.966 20.7941 
880.265 840.902 29.6233 
883.18 816.262 24.8846 
920.903 838.613 17.3392 
869.285 832.379 8.6346 
897.219 844.471 16.4063 
885.127 859.134 9.13551 
872.825 839.854 12.5594 
922.353 817.88 16.4017 
895.329 838.435 23.5195 
888.758 811.591 7.98155 
916.924 825.231 16.462 
883.278 859.576 9.31558 
883.217 831.381 29.8193 
929.631 826.747 10.1493 
924.214 817.202 16.4 
903.208 816.777 16.3816 
890.634 841.344 29.7144 
908.277 854.038 16.6056 
891.152 821.059 27.2217 
911.992 831.329 16.556 
892.348 826.34 23.8283 
898.951 853.799 26.3671 
919.087 836.115 16.478 
875.615 851.653 27.3322 
919.699 816.668 16.6244 
899.487 827.737 16.5027 
913.177 854.589 8.01908 
911.501 849.143 16.3771 
910.683 839.174 16.466 
896.434 843.544 27.9155 
907.174 839.115 16.471 
876.904 856.991 10.8338 
925.948 808.774 8.32069 
891.804 822.257 29.7866 
918.6 806.586 9.70771 
883.804 821.435 29.7048 
871.79 833.034 31.9138 
871.73 848.992 7.90226 
917.878 822.504 17.7917 
876.975 823.353 31.5854 
899.047 854.523 25.1231 
889.979 814.652 14.5022 
895.534 839.633 26.9884 
908.419 853.688 11.3337 
894.715 811.748 8.38056 
925.273 807.217 10.3387 
883.026 845.523 29.6462 
893.27 822.71 16.4177 
917.705 824.824 17.0357 
912.489 809.402 8.21386 
903.395 811.529 14.7859 
869.017 823.464 14.3361 
869.625 825.865 9.29803 
908.438 838.422 16.4549 
896.329 843.078 24.4188 
880 817.05 18.5717 
922.966 832.182 17.7061 
894.261 832.01 30.1286 
895.195 838.289 27.8644 
914.422 846.168 16.4164 
876.568 855.535 14.67 
871.08 833.041 29.5422 
896.311 843.235 17.7852 
907.287 810.528 8.3254 
904.34 855.741 8.23949 
870.007 841.147 7.8755 
896.878 856.379 28.0201 
876.289 854.961 29.2271 
895.524 836.926 16.5416 
872.608 838.846 22.5171 
888.295 814.905 29.4286 
922.476 815.267 16.3765 
895.531 856.718 11.1432 
885.066 815.809 15.7706 
899.984 811.253 8.0772 
900.866 819.006 16.4479 
925.633 809.84 14.0056 
884.181 854.916 29.6667 
889.587 814.776 15.642 
880.662 817.889 29.7465 
882.778 816.37 23.7653 
928.804 822.962 16.0076 
875.792 852.355 25.8447 
925.15 804.576 7.88735 
920.087 807.657 13.6717 
888.772 814.974 24.9816 
899.349 855.603 25.3644 
884.785 855.452 29.6713 
931.581 824.797 8.30165 
915.885 837.143 16.4656 
910.576 809.78 8.48127 
921.732 807.195 12.3885 
927.028 815.754 11.2651 
904.376 846.07 17.8077 
925.027 808.099 14.501 
928.596 822.312 11.7441 
879.136 857.337 29.6104 
899.052 852.464 30.0996 
894.375 813.443 16.342 
898.258 827.535 16.4624 
904.522 830.7 17.3609 
915.493 829.118 16.5111 
874.552 847.31 14.6611 
874.018 844.602 25.0849 
880.675 838.599 29.6773 
928.586 831.943 16.4591 
916.501 811.718 16.3604 
899.053 854.666 27.6919 
895.653 813.371 15.3128 
922.095 826.653 17.6383 
907.929 853.812 12.5884 
868.868 827.383 8.25437 
872.722 839.129 24.9353 
869.29 840.642 7.89087 
898.188 812.929 16.7303 
916.957 813.267 16.376 
927.526 850.484 8.10416 
897.684 835.723 16.5181 
880.643 860.658 30.0846 
923.036 829.534 16.5312 
933.463 843.133 14.5828 
927.413 817.365 11.9095 
871.213 822.619 32.7922 
922.9 840.617 17.7712 
928.444 847.404 16.3483 
908.006 817.002 16.4031 
883.061 819.392 29.7596 
888.563 829.824 29.7701 
924.994 806.853 15.9472 
891.067 820.371 25.7106 
905.591 813.181 16.3417 
868.929 819.569 11.31 
927.566 836.379 16.4735 
901.748 821.142 17.6914 
929.483 848.758 10.6145 
874.952 840.562 29.5968 
873.67 842.446 20.9093 
905.747 817.687 16.4 
870.765 831.195 18.6633 
881.868 817.359 29.7651 
897.386 856.286 21.707 
934.178 845.439 10.9813 
874.597 847.403 14.0754 
931.448 816.942 7.87238 
884.86 859.236 22.7602 
880.2 817.024 14.694 
872.036 822.36 29.8545 
911.021 853.151 9.67621 
899.688 856.172 16.9811 
876.372 854.637 20.662 
876.91 857.091 17.2477 
924.645 832.722 16.489 
872.658 818.749 25.4976 
907.651 849.171 16.3839 
922.68 820.04 16.4264 
879.586 834.938 31.6406 
889.989 815.596 19.0086 
874.046 844.923 16.1114 
874.717 855.842 8.1235 
869.394 819.498 17.5249 
931.696 835.7 8.77588 
933.887 842 11.0773 
876.165 819.781 30.5472 
930.463 837.429 16.4346 
873.949 845.086 30.2012 
877.286 859.043 28.7089 
896.096 859.275 7.99925 
873.551 843.028 28.7476 
928.376 820.099 8.0425 
902.934 823.891 17.5327 
908.802 827.544 16.4672 
897.532 839.343 16.4476 
897.75 818.729 16.3961 
908.24 826.044 16.45 
871.636 818.699 29.8678 
891.934 857.536 23.6508 
891.65 817.375 16.3732 
891.578 820.782 30.2392 
920.549 806.459 8.66312 
891.467 822.259 27.2797 
919.988 822.585 17.7238 
903.277 824.655 16.4914 
879.896 846.05 29.6178 
870.053 827.749 18.8074 
929.854 825.196 8.32554 
889.664 858.093 25.8907 
878.984 832.165 33.2464 
923.962 835.403 17.7016 
916.032 844.456 16.4143 
871.243 833.228 28.1854 
901.473 827.897 17.7494 
908.253 843.228 16.4315 
922.052 850.516 12.5484 
920.832 846.03 16.3835 
872.685 839.34 24.4284 
926.098 812.15 13.016 
871.266 832.97 20.825 
915.419 852.06 11.9333 
894.867 857.309 8.17027 
873.399 841.361 29.9627 
926.127 845.78 16.3554 
932.465 839.227 13.1028 
892.969 828.499 20.7016 
933.444 837.404 8.55654 
892.257 854.314 29.7361 
881.515 860.003 19.7953 
897.023 845.206 28.4414 
896.56 842.733 29.5298 
897.628 848.375 25.3012 
870.688 830.808 25.5438 
869.35 835.067 8.19269 
928.504 836.787 16.4541 
936.229 839.327 7.9602 
877.027 861.688 7.889 
887.25 815.31 17.6126 
888.71 814.979 23.3203 
897.111 841.415 16.4305 
930.239 830.294 9.95034 
871.18 834.287 8.05471 
931.706 836.18 14.1412 
911.788 846.797 16.4063 
876.189 824.495 34.1244 
896.507 843.338 26.8019 
884.179 815.951 28.3042 
897.345 848.703 29.8193 
883.135 858.293 29.6144 
875.539 817.833 30.2229 
889.454 851.335 29.7038 
926.161 812.357 14.4454 
891.19 812.816 9.89322 
899.308 837.478 16.4765 
871.874 835.75 33.6101 
889.775 831.139 29.8286 
905.282 855.989 8.07217 
931.507 834.977 12.1486 
900.72 847.291 16.3826 
878.077 839.4 33.3179 
876.336 819.878 31.7848 
901.865 851.674 16.3662 
914.712 804.423 7.92095 
914.61 843.665 16.4492 
871.756 835.073 13.0068 
876.443 855.12 16.834 
874.605 818.319 11.4216 
893.681 831.369 26.1516 
876.451 854.997 8.9791 
874.635 847.457 15.9168 
925.045 834.953 16.4456 
873.93 828.448 29.6084 
931.709 837.521 16.5139 
904.251 815.275 16.3687 
910.779 809.423 8.07808 
893.541 830.768 22.8789 
869.341 826.609 8.06622 
893.866 813.585 16.9711 
933.795 843.926 16.203 
906.465 840.559 17.6891 
923.027 830.844 16.7342 
913.163 838.282 16.4739 
883.644 820.796 29.7199 
880.058 860.333 23.3905 
879.397 850.694 29.61 
890.871 819.36 22.2912 
879.681 822.573 29.7454 
874.131 845.515 25.7293 
870.966 831.755 23.1114 
872.842 822.975 29.6548 
876.348 854.534 27.7461 
933.939 845.411 12.1634 
891.194 820.932 25.153 
908.18 810.491 15.2347 
892.063 817.613 16.37 
875.902 852.89 8.73708 
913.714 848.641 16.3827 
918.708 851.171 10.338 
868.832 822.4 34.4669 
885.699 841.52 29.6671 
903.502 811.465 10.8568 
905.326 834.144 17.2759 
868.349 819.757 17.8665 
894.668 813.658 9.50205 
909.074 853.531 9.94794 
869.529 825.6 13.2431 
889.985 815.395 19.5099 
928.639 823.616 9.92216 
885.929 815.662 11.3895 
919.998 806.638 8.55893 
898.716 852.679 27.6357 
869.898 827.074 24.2124 
876.683 856.1 13.1321 
930.414 848.529 10.6566 
898.364 851.281 24.37 
915.247 852.008 16.5351 
903.192 811.491 13.6609 
876.736 817.852 27.3603 
866.475 820.935 7.9397 
894.619 835.354 17.2211 
873.87 844.191 22.7387 
902.905 830.269 17.7412 
869.622 825.876 21.3686 
895.134 836.675 29.7152 
879.618 829.177 29.6133 
882.398 816.477 9.30783 
898.962 855.919 11.9319 
887.618 858.681 28.5632 
871.993 835.833 31.8714 
868.179 820.127 12.8792 
932.795 840.629 12.6001 
915.026 808.825 14.0347 
870.654 819.239 11.1061 
891.411 812.728 8.40278 
887.98 851.655 29.6889 
898.823 837.335 16.5057 
910.196 810.75 16.3566 
925.32 808.127 15.4652 
910.872 848.191 16.3783 
928.92 810.921 7.94134 
907.376 810.66 11.67 
870.437 829.313 27.1984 
893.759 831.932 28.2047 
923.172 817.146 16.4134 
884.315 855.66 29.6611 
885.526 842.428 29.6683 
896.962 810.334 7.9487 
899.605 814.332 16.3826 
934.598 828.593 7.87909 
911.374 830.872 16.5455 
872.973 840.49 20.8419 
873.581 818.534 26.084 
880.09 854.914 29.624 
906.938 811.18 9.43205 
892.205 825.164 24.0304 
892.963 842.844 29.7446 
915.69 816.383 16.9136 
890.054 854.469 29.6916 
872.919 840.038 33.3253 
902.303 823.179 17.6813 
881.855 848.514 29.6243 
932.829 848.407 8.12779 
898.792 842.708 16.4084 
899.503 855.543 29.4678 
932.296 850.277 7.96968 
886.161 858.585 29.6954 
912.328 812.952 16.3484 
888.614 818.235 29.7819 
890.542 857.846 26.4934 
873.613 843.049 15.9053 
880.508 860.221 24.1702 
894.429 856.949 20.9564 
885.861 815.898 29.8707 
879.005 832.318 31.1166 
881.432 847.091 29.6281 
899.31 827.303 16.4937 
878.595 840.062 29.6143 
904.959 811.134 13.2148 
870.726 830.39 13.4925 
878.426 818.362 29.7395 
904.928 847.709 16.392 
927.263 816.782 13.4457 
926.516 813.935 11.7335 
872.377 838.945 30.1953 
929.173 847.562 16.3653 
874.658 840.243 33.2915 
895.612 812.256 8.2223 
876.353 817.941 20.855 
892.696 857.359 24.5115 
875.809 818.044 19.734 
918.187 808.048 12.1825 
899.491 839.015 16.4499 
887.201 813.732 8.34178 
893.301 825.865 16.4595 
889.87 858.024 21.7269 
929.58 826.504 17.0162 
890.828 857.781 27.7556 
915.69 840.244 16.4311 
904.303 818.433 16.3908 
911.59 831.825 16.5401 
910.484 846.332 16.383 
882.819 832.825 29.6527 
906.83 812.669 16.3924 
868.532 821.15 9.47641 
932.67 837.688 8.11728 
882.813 859.736 8.4623 
914.095 841.775 16.4662 
904.96 854.448 9.06725 
873.175 841.189 26.6197 
876.793 850.606 29.6061 
874.515 847.044 25.5687 
935.262 834.571 8.0202 
913.931 814.794 16.3736 
925.343 831.229 16.5061 
872.956 840.626 10.3046 
932.315 838.205 9.81649 
869.984 827.512 12.1556 
888.533 835.689 29.7123 
880.565 816.954 12.2695 
897.683 848.568 28.5809 
916.129 846.697 16.4075 
895.637 817.31 16.3857 
890.467 817.688 26.4178 
870.138 828.124 13.0583 
909.978 853.337 9.36926 
903.193 809.872 8.09272 
902.832 811.66 12.6785 
926.21 849.515 14.6473 
892.447 826.193 26.9268 
881.646 859.992 11.3655 
920.892 806.447 9.89879 
882.877 859.699 20.6005 
871.183 833.097 14.8649 
886.382 815.539 18.1384 
913.076 852.638 10.8299 
870.034 816.861 7.92203 
931.081 848.266 16.8991 
921.313 803.23 7.92187 
893.416 830.043 20.7591 
930.887 819.429 9.41247 
881.8 816.537 14.633 
868.242 820.51 21.7665 
892.471 816.626 16.3727 
895.677 819.471 16.4071 
903.518 811.481 15.0893 
873.042 840.918 16.3229 
892.074 824.556 23.655 
893.691 831.427 19.577 
895.374 824.918 16.4499 
906.215 837.821 16.5148 
929.657 817.366 10.6436 
879.475 821.838 30.3426 
888.561 835.136 29.7083 
871.007 831.8 13.4557 
884.413 859.338 20.8383 
913.696 836.45 16.4862 
875.465 850.999 15.0996 
878.994 832.24 29.9276 
875.394 850.657 16.3574 
914.845 808.844 10.3271 
885.908 858.964 19.9458 
929.468 826.022 8.51114 
919.312 807.806 9.63002 
878.19 860.805 10.8374 
896.608 829.323 16.4861 
891.723 822.808 24.0643 
922.399 807.116 11.4283 
870.609 830.257 12.5368 
926.689 811.162 10.2835 
905.003 854.482 12.4701 
918.676 842.248 16.4199 
917.409 814.433 16.8263 
933.515 843.016 15.9934 
903.875 832.106 17.7074 
934.524 833.373 8.10494 
918.105 808.054 8.12065 
930.104 846.806 16.3931 
899.091 834.404 16.5135 
893.477 830.222 22.4614 
910.319 834.133 16.5008 
875.953 823.292 34.2936 
876.182 833.249 33.5295 
922.558 825.542 16.5042 
896.889 814.986 16.3559 
876.724 856.396 27.0138 
921.881 825.833 16.6191 
890.993 829.265 29.714 
910.419 852.396 16.3518 
877.384 859.327 25.3792 
922.959 850.279 9.17573 
875.167 854.552 8.34029 
869.225 824.232 23.8012 
935.103 836.252 9.2524 
880.268 816.76 30.2202 
898.954 812.621 9.22783 
876.656 828.757 29.5968 
892.626 826.812 26.5813 
871.691 816.313 8.17433 
905.967 854.3 12.5956 
911.965 809.415 15.8885 
883.828 816.188 9.45139 
897.705 812.903 9.43402 
886.318 858.859 21.2919 
871.146 832.63 10.4479 
899.144 854.621 23.5127 
878.364 860.759 25.5725 
894.23 833.757 25.7219 
895.937 856.478 24.1375 
882.746 845.422 29.649 
869.242 829.874 10.0586 
893.492 830.539 22.2 
869.614 829.584 10.7623 
885.002 855.852 29.6708 
869.242 824.48 8.46175 
870.301 828.87 13.3366 
905.34 854.776 16.6845 
894.959 837.491 21.1355 
915.685 817.867 16.4272 
870.607 830.385 8.12595 
892.873 827.767 21.7064 
932.959 847.953 13.9503 
880.822 860.167 10.1688 
910.071 853.309 9.89403 
926.833 828.261 16.5417 
872.518 840.485 8.1849 
870.045 827.614 20.3738 
872.029 817.059 8.57375 
891.61 852.886 29.7194 
879.506 816.95 29.4783 
871.928 835.684 27.7574 
882.1 846.32 29.6369 
909.836 850.479 16.3843 
913.561 844.081 16.4104 
880.587 860.211 26.6237 
883.803 859.501 27.0144 
877.552 859.905 22.5477 
889.443 852.577 29.6965 
928.777 848.975 16.9756 
896.853 844.127 29.5188 
907.912 810.51 12.56 
887.96 855.204 29.6784 
879.143 830.693 29.7028 
929.259 825.2 16.994 
891.128 820.155 30.2286 
919.52 847.186 16.386 
903.34 842.468 16.6986 
876.916 847.137 29.6 
894.358 834.317 25.5236 
877.027 817.714 9.94855 
935.104 835.508 8.52608 
931.541 834.705 15.7976 
891.886 823.749 25.8154 
890.804 835.339 29.7906 
900.987 808.25 7.90099 
875.192 834.045 33.5136 
873.398 823.484 31.2218 
878.971 860.617 10.9938 
895.011 846.067 29.7615 
925.141 839.758 17.3986 
899.969 851.523 16.3322 
930.081 829.448 10.9219 
921.374 850.646 13.4889 
882.676 829.629 29.637 
865.635 824.016 7.84113 
883.035 816.298 27.2808 
891.796 832.183 29.7513 
875.456 851.013 27.9839 
892.468 826.541 28.2177 
870.886 819.199 28.1714 
888.991 846.229 29.6725 
876.143 854.033 18.3949 
871.839 818.97 22.1284 
892.646 857.398 26.7779 
876.96 857.23 23.294 
934.222 837.945 8.66751 
867.831 825.704 8.16595 
879.083 817.213 19.3646 
874.63 856.969 8.02608 
920.635 850.824 9.00315 
888.274 819.208 29.7849 
915.952 834.129 16.5045 
887.799 839.682 29.6867 
911.185 807.456 8.0357 
887.984 815.154 11.0728 
872.758 839.509 26.4934 
926.459 813.59 13.7813 
868.82 822.776 17.3589 
868.201 820.086 16.4096 
904.573 854.587 15.6023 
870.711 819.232 14.3283 
937.205 838.615 8.00046 
868.413 820.888 10.824 
875.147 848.956 17.8797 
901.925 836.782 17.4657 
898.324 856.056 17.4496 
915.263 805.323 7.92525 
906.034 846.669 17.7665 
913.748 852.048 16.3819 
926.151 820.193 16.4123 
896.002 842.039 29.8714 
868.976 823.003 33.7183 
887.645 857.695 29.6799 
872.893 838.76 23.7513 
906.238 822.751 16.4317 
901.829 847.715 16.3697 
907.359 849.72 16.3697 
927.502 817.699 12.9791 
931.928 830.583 8.34854 
913.324 827.717 16.506 
890.134 816.201 22.8523 
877.05 857.747 22.1583 
924.774 826.734 16.5275 
934.985 839.194 7.97902 
892.552 857.407 25.1453 
922.541 850.381 12.2986 
897.789 856.178 10.7743 
880.025 849.013 29.6249 
873.813 843.989 12.4078 
878.152 817.462 14.2224 
894.087 833.826 24.4767 
870.677 830.849 25.8943 
872.37 837.604 32.435 
870.759 819.185 34.3539 
872.982 840.506 23.8604 
935.227 848.257 8.00004 
873.642 843.258 18.9539 
870.219 828.454 20.6315 
901.945 810.265 8.13683 
869.348 829.325 11.1803 
922.613 828.231 16.5838 
882.864 816.416 20.6665 
906.738 811.504 9.23956 
873.951 818.478 24.1896 
906.469 854.179 11.3372 
926.674 809.207 11.4232 
867.584 818.098 7.83397 
888.82 814.951 15.1791 
876.608 855.965 28.6231 
911.644 809.618 11.4137 
897.967 812.704 15.8932 
893.096 818.661 16.3869 
868.296 820.609 22.6547 
911.278 838.807 16.4484 
870.984 831.867 19.5413 
914.796 809.058 16.8674 
865.557 821.269 7.81766 
886.843 846.034 29.659 
924.55 825.909 16.514 
919.442 807.438 16.6848 
873.154 818.644 22.7263 
896.146 840.979 16.696 
924.978 839.187 16.8947 
869.463 825.303 13.4467 
893.761 830.687 16.711 
883.989 827.904 29.6841 
875.207 818.176 20.6815 
905.962 854.304 14.8759 
906.309 826.1 16.4601 
918.702 829.761 17.1644 
904.982 842.464 17.759 
928.744 823.265 12.5851 
876.151 815.362 7.97028 
894.339 834.017 22.6369 
932.321 838.218 14.8966 
936.68 844.122 8.6146 
923.452 832.658 16.8028 
884.419 859.34 21.1529 
868.78 822.431 11.0001 
905.038 810.727 8.26089 
879.306 860.529 22.9277 
895.726 840.087 25.2235 
890.692 818.664 27.3599 
897.009 843.913 16.4112 
913.322 841.231 16.4336 
897.043 834.837 16.5405 
906.494 816.983 16.3982 
922.101 806.929 16.4594 
868.317 819.66 13.0687 
918.815 845.58 16.4107 
890.342 852.439 29.7007 
883.121 816.296 22.9255 
871.62 819.073 14.2649 
904.801 840.018 17.7295 
868.41 819.757 16.1074 
911.569 853.002 15.2579 
895.351 856.703 22.0672 
868.925 823.06 19.807 
929.113 803.483 7.85741 
870.859 817.404 8.44955 
876.979 857.643 8.55369 
899.638 808.857 7.90142 
924.035 845.169 16.3921 
910.203 853.731 16.9538 
875.123 850.078 29.3093 
872.911 840.26 13.2553 
868.774 822.513 21.8233 
897.035 813.003 9.97451 
897.423 836.86 16.4978 
927.927 835.191 16.4615 
914.887 812.063 16.3754 
881.823 847.427 29.6269 
917.222 848.059 16.3853 
879.463 817.799 8.97596 
874.496 847.089 12.8751 
932.598 833.489 8.35634 
876.375 827.364 29.6099 
869.576 825.774 10.9391 
894.353 856.987 27.4967 
927.881 807.639 10.715 
869.389 832.44 10.1351 
883.563 816.175 26.5405 
927.899 818.663 16.9851 
874.647 847.719 12.3604 
917.227 852.998 8.07172 
899.326 854.5 16.8533 
913.202 809.23 8.30151 
866.634 823.472 8.14062 
899.916 855.683 13.2637 
916.82 836.357 16.4814 
873.192 818.637 23.3228 
895.296 813.491 14.0289 
890.514 814.562 12.9109 
916.754 805.75 8.29203 
869.262 824.438 23.3632 
903.234 854.171 16.403 
893.387 829.125 29.7412 
896.74 842.975 29.8794 
885.36 858.94 29.9365 
914.064 809.023 13.4943 
933.779 825.694 7.92213 
878.533 820.15 29.7076 
927.552 849.225 9.99741 
917.811 812.673 16.3366 
923.583 850.15 12.9126 
872.056 836.648 29.0394 
901.51 855.293 13.7088 
898.144 820.352 17.1997 
875.462 850.803 17.6603 
903.28 848.901 16.3691 
868.655 819.657 28.3879 
873.653 843.069 23.6757 
869.633 819.459 28.1614 
874.764 847.81 17.9777 
907.134 835.83 16.4968 
916.458 808.498 11.0735 
917.116 814.029 16.3968 
928.438 809.756 9.31041 
873.544 847.596 10.9002 
877.566 831.622 30.2395 
893.299 829.741 17.6549 
873.362 823.509 33.7928 
889.427 814.837 9.42854 
917.077 807.109 8.56341 
872.134 836.887 12.044 
898.218 849.452 29.8899 
926.782 814.972 14.0065 
896.536 844.168 27.5548 
888.21 859.911 8.08595 
887.767 813.608 8.26762 
906.111 811.187 9.68428 
872.101 837.09 9.73238 
899.205 822.124 17.7849 
873.499 848.046 11.0881 
887.436 815.303 13.5988 
875.581 851.322 17.1749 
878.047 856.049 29.5899 
881.2 823.127 29.6559 
894.747 835.864 27.5489 
885.158 832.141 29.6791 
870.419 829.408 11.097 
870.858 819.206 32.6535 
875.476 840.037 33.3086 
919.844 807.643 8.21915 
906.446 852.708 16.3324 
880.756 860.205 14.7751 
901.465 809.393 7.9415 
893.112 828.98 26.4718 
891.507 821.498 30.2455 
880.155 837.646 31.2678 
881.734 861.347 8.01988 
928.379 815.156 9.26567 
929.847 827.841 10.8216 
930.9 838.331 16.4217 
873.548 842.896 22.0636 
933.191 847.867 12.4754 
889.227 837.02 29.7193 
875.144 818.183 15.7898 
901.504 855.299 14.213 
868.175 819.844 17.3437 
893.865 815.537 16.384 
931.245 826.58 8.34561 
908.237 853.729 13.8328 
920.521 803.342 7.94786 
875.137 849.497 10.0985 
913.74 845.519 16.3989 
903.246 817.087 16.3873 
871.387 847.908 7.89554 
929.607 846.145 16.3865 
921.176 807.323 14.22 
893.918 831.863 29.2191 
901.273 855.28 11.515 
879.854 860.37 17.258 
868.206 820.312 24.6071 
908.948 846.104 16.3971 
918.633 841.602 16.4194 
872.97 817.334 8.38757 
873.914 845.16 29.4923 
873.601 842.516 24.5735 
872.712 839.382 22.0368 
922.622 807.083 11.9363 
906.328 828.496 16.4667 
871.324 826.094 29.5628 
872.498 838.28 11.1144 
912.934 853.08 8.33226 
895.198 822.355 16.429 
894.074 857.084 18.1272 
915.745 825.543 16.4763 
880.233 852.534 29.6173 
927.688 818.361 15.4126 
904.396 854.602 12.2279 
917.317 827.602 16.5022 
929.456 838.273 16.4465 
894.923 836.36 26.108 
876.913 817.963 29.8945 
915.699 824.996 16.4652 
876.519 830.527 29.587 
891.205 820.319 29.3202 
933.674 843.891 14.3094 
890.097 816.071 26.1838 
881.786 828.686 29.6303 
911.933 852.864 14.0057 
931.194 848.357 14.1358 
920.312 819.172 17.6509 
915.896 834.905 16.4916 
928.593 823.524 14.1264 
895.936 856.598 25.2894 
911.972 844.403 16.4121 
929.895 813.798 8.89939 
870.932 831.828 16.9238 
901.05 823.001 17.7229 
880.287 847.007 29.6156 
894.652 835.609 22.1004 
910.28 822.398 16.4541 
898.366 812.702 8.58916 
874.175 844.857 17.8236 
869.312 819.597 26.7463 
878.425 860.771 22.6542 
913.93 821.154 16.4402 
876.762 847.986 29.5924 
899.326 855.19 24.5781 
934.79 830.299 7.92299 
885.924 815.673 13.1593 
