ply
format ascii 1.0
comment VCGLIB generated
element vertex 1749
property float x
property float y
property float z
element face 0
property list uchar int vertex_indices
end_header
10.2015 12.2441 -0.0705152 
-4.62893 -5.31004 -9.57885 
9.20152 2.80055 4.40649 
-6.5069 -7.96285 4.52865 
-3.19108 0.614718 -15.3568 
-6.07063 0.441769 -16.6095 
12.4835 8.3595 2.02013 
-1.23848 -0.89586 -2.78477 
-4.38997 0.857347 11.8724 
10.4554 6.37153 -6.35801 
6.62032 12.0569 2.66941 
-0.530366 6.29168 14.9263 
2.08214 5.78648 -5.64771 
6.36694 -3.2757 12.0316 
-1.01263 0.345783 -0.873628 
2.82348 -7.68002 7.51351 
-1.32625 1.69445 -12.4697 
1.46523 9.64896 10.1755 
1.25837 5.45934 -10.1835 
-4.19413 1.22584 14.5082 
2.17113 -5.99004 9.17481 
2.56435 1.66994 -1.60708 
7.39718 0.318107 5.75798 
-0.0109986 7.74651 13.8786 
5.89959 6.67809 8.58459 
-9.96051 -13.7198 -0.848939 
3.86173 12.5562 4.13779 
8.01692 3.3671 -7.50561 
3.83028 16.324 -2.92439 
4.55812 -3.76658 2.06032 
-0.789394 -3.15891 5.53915 
0.375636 5.73264 15.1374 
1.38103 12.8818 -5.95421 
-8.11997 -11.0086 -2.85871 
3.98612 14.9303 -2.21207 
-2.39479 -0.498454 -9.35946 
-1.61339 -1.15652 -4.42481 
-8.72912 -2.1769 -18.3914 
2.49028 2.82098 -2.87293 
3.86673 4.49108 12.1858 
-0.716483 1.90433 -8.10845 
-13.5652 -11.6644 -7.12969 
-2.38704 -0.960478 11.2672 
11.8895 10.2985 -2.68092 
12.4761 9.19061 0.308649 
-8.50054 -1.64609 -19.2339 
0.465362 0.930734 0.549234 
10.9923 6.97435 -0.896296 
-0.392962 1.21178 -0.186305 
-0.745517 -5.61842 7.88312 
4.21536 1.8737 14.4592 
10.7717 7.86724 3.89475 
5.31938 12.5643 -3.50401 
8.21909 2.68196 -1.97663 
3.1288 -5.94886 5.36289 
4.75063 4.32306 -5.92523 
-14.4259 -12.6926 -6.40904 
-8.62718 -4.85396 6.75849 
5.53732 11.2254 4.35564 
2.91257 1.82219 15.1914 
3.77977 15.486 -1.90636 
-8.88222 -10.9954 1.39866 
-14.0204 -12.6218 -6.51288 
-10.5208 -5.81332 -13.5203 
4.01638 -6.16632 10.0026 
-0.761804 -5.4559 7.81211 
-4.70235 -6.40895 6.14089 
-14.0425 -10.8425 -9.0823 
-13.046 -11.8937 -5.90894 
-7.20894 -4.11723 7.02291 
-9.88926 -13.8717 -0.848081 
5.29042 -2.75248 3.46554 
4.20348 -2.7335 12.2448 
9.58788 7.19216 -5.77446 
12.8987 11.4554 -1.28563 
-3.41882 -1.93984 -10.6069 
-8.19342 -9.60747 -10.4217 
-0.136525 6.65288 12.998 
-12.4226 -11.2536 -0.0720468 
0.0292558 2.25013 14.3688 
-3.04509 -3.61664 4.95113 
-1.29166 -1.1435 -1.8919 
4.69378 1.95598 14.1707 
-5.70553 -7.31671 -6.54351 
10.1071 4.69653 5.06557 
8.74183 3.86102 9.28895 
-10.6357 -15.1067 -2.19155 
2.0336 0.471765 -0.134659 
2.76613 11.2871 7.82351 
-10.8351 -14.3128 -1.6303 
-9.24936 -9.80645 -10.2969 
7.22056 1.01033 -1.64115 
-4.23086 0.0710742 -16.155 
7.81243 14.1991 -1.34114 
1.14588 -0.357699 1.52793 
3.41296 7.0217 -7.47902 
-8.18215 -11.6272 -3.5597 
7.33373 6.19121 7.99511 
4.99886 -3.9004 8.38996 
1.3104 9.58499 8.9387 
-6.94191 -5.89972 -15.978 
0.683673 9.25325 12.4309 
-8.6538 -10.0695 -10.7198 
6.50152 -1.32091 4.77616 
3.89373 15.1643 2.64674 
13.6848 10.6479 -0.722306 
8.04402 1.73864 2.90393 
2.16487 6.49234 -7.37855 
7.58253 1.6237 -1.74842 
1.24644 -2.96354 3.83318 
6.2353 -0.959383 -1.91733 
9.72058 4.1604 4.69156 
0.145229 8.13468 12.6483 
6.18255 -0.833263 -0.420334 
3.41809 6.61877 -7.18483 
-6.87412 -2.7024 8.24341 
10.5204 7.22224 4.68641 
-2.89199 -2.29102 -3.25687 
9.64113 8.07199 -5.12831 
0.180418 6.49352 12.9038 
6.65024 -1.07615 4.36931 
-2.81094 3.16598 14.5836 
6.51079 12.4947 2.29343 
11.049 8.77621 2.70984 
-4.8971 -6.36417 3.86241 
2.18404 1.28059 14.4906 
1.30439 -6.816 7.63175 
-3.06155 -1.97874 -6.62616 
8.98801 2.27337 4.64769 
-14.9016 -13.8976 -1.74199 
0.859536 7.70222 -8.651 
8.15693 1.88293 11.6684 
2.04765 10.8453 8.88173 
-6.05801 -5.20438 -16.7789 
8.75596 2.6601 4.1071 
10.2791 1.13497 6.31402 
-9.54607 -6.13196 6.28449 
-10.7073 -5.63119 -16.1306 
-11.3924 -7.39253 -11.2685 
-3.70359 -3.08865 -6.45885 
2.56198 1.91356 -1.92511 
9.26721 3.77455 2.30666 
-12.6806 -12.2799 -5.41619 
-3.39522 0.221746 11.6011 
-2.38583 -1.57443 -3.47197 
9.47103 3.7646 4.78388 
5.35727 -2.69669 3.76886 
1.37338 -5.12013 5.9351 
-6.15041 -1.61438 9.80093 
-13.2457 -9.41772 -10.5246 
-0.0645053 6.33359 13.1964 
-2.8952 3.34346 -13.2654 
-1.70005 -0.80682 -0.237031 
3.45318 5.89446 -6.61299 
7.38288 -3.20772 13.1571 
-1.60298 0.0838172 -5.67564 
-9.28246 -3.71156 -16.4682 
4.82431 7.97055 -7.00961 
10.4378 12.7149 -0.752264 
-0.785714 -1.65411 11.2372 
1.33815 -1.30307 2.12942 
-5.8124 -6.69995 -4.22981 
9.35581 -1.82933 14.6094 
0.687713 8.78455 10.2709 
-12.9564 -11.1461 -6.38937 
1.72845 10.2763 -6.46932 
7.24456 0.92712 -0.513027 
6.58713 0.168683 -2.84671 
6.07054 4.85267 -7.30399 
7.68416 1.89542 -2.76222 
6.13591 9.36841 -5.48131 
2.44365 -3.48426 3.5086 
3.33113 6.93281 -7.26055 
3.12237 -0.897407 13.2352 
0.700911 -3.43317 10.4984 
-6.68639 -4.6283 6.87122 
-11.2967 -5.70932 -15.5873 
13.3278 11.2116 -1.2931 
10.6296 7.31177 4.49079 
8.2143 -3.77604 12.6514 
4.67772 7.12956 -7.68511 
-3.80352 -2.51149 -13.3533 
0.633758 11.874 -7.05342 
6.36436 4.27768 10.6152 
5.31537 -3.06289 5.94833 
-2.67407 -2.94592 4.394 
1.55243 0.223913 0.455867 
0.495014 4.66243 -11.15 
6.69817 -1.38115 14.2893 
6.50441 1.22839 -4.33408 
-13.219 -10.9223 -8.94703 
5.51913 4.72226 10.8323 
-17.0143 -16.5638 -2.46993 
2.07358 11.9819 8.40852 
-6.0338 -7.2376 -2.7477 
0.36238 2.59185 14.7388 
0.935228 7.94725 10.755 
-8.15391 -4.78476 -16.1403 
2.50411 3.90735 13.7572 
-7.04054 -9.20817 0.386945 
6.28641 12.5762 2.37252 
3.3429 -6.31913 6.42025 
-11.1401 -13.6717 -5.15263 
-7.50104 0.605758 -18.042 
-10.7682 -5.25766 -14.5 
1.39026 9.78668 9.81846 
10.4567 7.33422 -5.46269 
-5.87407 -8.03387 4.82254 
11.0114 7.45158 -4.9621 
-1.87216 -4.9509 8.05441 
-3.11747 -4.41376 1.26511 
6.12716 4.48876 10.5749 
9.97575 7.82663 -5.1878 
-4.07167 -5.28653 2.84033 
-3.79978 1.58095 13.8397 
4.14332 16.4928 -1.77764 
-0.849013 -3.36749 9.94448 
10.0836 0.608017 7.67139 
4.50332 2.06301 -3.41193 
4.51251 -4.15062 4.43829 
4.01672 -5.12294 5.62192 
-10.447 -4.19262 -17.1094 
0.349584 2.14042 -0.767641 
-0.0380353 1.66117 -7.02107 
-15.9394 -14.486 -4.83841 
-7.35157 -3.72955 -17.8493 
10.2934 5.83747 -0.741236 
2.30663 11.4809 7.67972 
0.342584 8.49641 12.9242 
-1.24251 -2.91836 10.1971 
-5.12644 -5.48273 -5.48089 
-5.41068 -6.90658 -7.23359 
-13.9524 -13.3368 -2.14474 
-7.43572 -3.58136 7.36874 
-5.31244 -0.851244 10.1493 
2.93283 13.4494 5.99042 
4.06759 3.19592 13.3327 
-4.06811 5.28728 -13.1688 
0.640137 3.68838 15.4135 
-0.923817 5.12421 14.9893 
7.44711 1.51442 -2.46576 
-1.95493 4.4672 15.3207 
-10.573 -14.2862 -3.04833 
3.8511 11.2076 -4.98569 
10.2527 8.85315 3.23935 
5.55849 14.7369 -1.7698 
-1.90347 0.552895 -11.3044 
3.37808 10.6732 6.43808 
11.0581 10.074 1.46752 
3.52639 6.58084 -7.2951 
-1.58227 -0.490734 -1.31547 
5.88367 9.51334 -5.46931 
-10.7662 -14.9522 -4.48883 
2.85815 14.2127 -3.18133 
1.79748 -3.28108 3.73498 
-4.43979 -4.5751 -4.13522 
-6.3082 -3.64606 -18.5679 
-0.800852 2.8654 14.5533 
3.45891 1.88629 15.1722 
4.15961 -3.60886 11.7032 
-7.21313 -8.98264 -3.55553 
9.52908 -1.21901 13.1193 
-4.39559 -2.68444 -15.5334 
-8.40659 -10.9002 -4.09509 
9.60855 1.61501 4.79613 
10.0734 4.55239 5.91274 
-6.49135 -9.00666 -4.34743 
6.38918 7.55671 -6.68099 
1.43251 0.251459 0.49281 
-3.24301 -3.62701 2.67811 
-0.663088 3.70646 -12.1856 
-2.99895 -3.92535 -0.647808 
2.17419 3.79881 -3.60871 
12.3579 10.3346 -2.4915 
3.12992 13.9859 -3.21006 
5.99448 -1.62218 2.08397 
10.3985 5.47881 6.62769 
0.675278 -5.50406 6.8325 
8.67645 2.09927 5.00333 
6.04677 -2.99157 10.0628 
4.23788 3.67571 -4.91339 
-0.0131773 -0.557505 12.3402 
7.48618 12.2124 1.87947 
2.59044 12.4811 6.29674 
4.22766 8.48508 -6.8083 
-9.45857 -12.7667 -1.01319 
1.73034 -5.82814 9.11716 
-12.3472 -15.0354 -2.91593 
11.5492 12.3814 -1.28998 
-7.83599 -8.4465 -12.9647 
-8.52503 -10.6426 -6.19743 
6.82088 -2.63031 13.3445 
-8.58487 -5.39134 -15.3062 
5.43679 -0.402085 -1.66657 
-1.64214 4.19012 15.1915 
1.91022 9.66162 8.8816 
11.989 8.04355 2.61549 
-9.51238 -12.0185 -7.62777 
-12.8439 -11.0703 0.7065 
7.02294 5.57714 8.83902 
11.2287 2.04992 9.28442 
0.950349 9.20571 10.5616 
3.76206 4.25622 12.5094 
2.0243 -0.83916 12.889 
12.3667 8.98213 -3.39649 
-9.08932 -9.38003 -10.9308 
-9.78115 -5.05695 -14.7636 
9.48442 5.12917 -5.32013 
9.19046 7.86429 -5.43249 
3.48411 -6.2639 7.56577 
-8.0118 -4.27448 -16.7277 
-14.2559 -13.2318 -1.37851 
7.69677 1.19242 2.83556 
7.46114 -0.71549 12.8199 
3.2511 10.815 7.34044 
0.636894 1.43891 14.0904 
-6.82323 -2.38893 10.0944 
4.27404 2.29612 14.1505 
10.5922 5.2154 6.47631 
-0.877337 2.46038 -12.8928 
9.14611 6.68283 6.18009 
5.18325 16.2745 -0.424071 
-8.77569 -5.10445 6.79997 
4.92826 3.91518 -5.67368 
-4.66822 -5.08359 -11.2072 
-6.96989 -2.67874 8.87934 
3.79355 13.6215 -3.22838 
-2.42873 0.0355869 11.8255 
6.63778 13.1128 1.57939 
7.64809 1.92671 -3.32861 
-0.433473 9.65551 -7.77382 
-13.561 -10.639 -9.02122 
-0.439496 1.47287 -4.81868 
-4.76227 4.33792 -14.1356 
-3.9721 -2.45112 9.47421 
0.020541 2.23625 -8.50513 
-3.77591 1.83843 14.6476 
-0.973445 0.856406 -3.58721 
-7.40329 -10.4629 -3.8882 
12.9732 9.79974 -2.6846 
6.75352 0.474775 -3.11137 
-4.19935 3.34327 -13.6253 
2.45984 6.17448 -6.12973 
-6.2951 -8.55878 3.98622 
-2.41949 -0.601339 11.3977 
4.69313 9.34731 6.80407 
-14.3821 -13.6461 -2.99662 
7.76441 0.107955 11.4734 
-13.3653 -13.5561 -3.79557 
-6.00634 -5.33997 -17.0496 
8.54277 -3.09833 10.333 
7.61848 0.361804 8.02029 
1.45234 6.09174 -9.70003 
8.42448 6.89202 6.37369 
-9.10489 -7.03113 -13.2872 
3.27221 0.969974 -1.57866 
-1.58531 2.46441 -13.4138 
-6.82303 1.55538 -17.1186 
-11.2137 -9.00874 1.99084 
-8.77483 -7.7283 3.83134 
-6.01696 0.984134 -16.1102 
-0.0286427 1.73005 -7.28591 
9.03747 4.32291 -4.5104 
-12.7804 -11.925 -0.718691 
-7.94564 -0.253427 -17.9865 
10.7004 7.38599 4.36796 
-2.78796 3.31372 14.1701 
1.43782 -5.05109 5.8258 
-2.60981 0.925481 12.3917 
10.8677 5.80502 6.01113 
5.55216 3.17961 -5.36571 
9.57808 0.000742829 7.32843 
10.7058 10.072 1.65585 
7.53159 0.14476 7.31532 
6.44314 0.0262058 14.8493 
6.16903 15.0662 -1.28998 
8.64777 0.3163 7.18808 
-3.03176 -4.60734 8.33856 
9.69573 11.2498 -2.77062 
-3.78596 -1.93136 -17.7621 
6.38859 5.33305 9.55447 
5.4483 11.8533 3.53078 
-4.25389 1.64695 -15.0172 
8.05215 2.29514 -1.13069 
-5.54477 -2.36164 -18.4541 
3.01602 1.69697 -2.0836 
2.93991 11.2339 -5.3099 
10.9565 6.92671 -1.0736 
5.57146 1.66386 -3.95436 
-2.28131 -3.26752 6.70145 
0.333904 2.20783 -6.99748 
-2.25646 0.530794 -14.385 
-1.79871 -1.48106 3.67279 
5.55496 9.46194 6.05646 
11.8231 7.84854 2.22585 
9.08916 12.3126 -2.22971 
5.87388 -1.81201 2.5644 
0.891072 9.10184 9.77876 
2.41508 -0.418152 13.3472 
7.05356 12.9987 1.40957 
-2.86383 -3.61304 7.07173 
-0.953561 -1.72661 11.1357 
-0.0419026 7.94309 11.5997 
12.9563 9.87068 0.447781 
3.03116 6.49278 -6.92997 
-6.48015 -7.80027 -3.67175 
-8.28353 -3.75099 -17.7933 
0.909478 7.45435 11.443 
4.66314 8.29136 -6.81675 
-8.83768 -11.7786 -1.48652 
6.53246 8.94078 -5.66137 
2.20977 -4.77844 5.02882 
-10.5381 -7.87501 2.89314 
3.03182 15.1979 -4.06341 
-7.27379 -9.00693 -6.79978 
9.76235 2.12932 4.07493 
4.44 14.7843 1.51347 
12.8531 10.7789 -0.524177 
4.30305 16.1832 -1.19723 
3.62108 -2.45723 1.6553 
2.45406 6.08703 11.4697 
-6.06654 -7.82822 1.48272 
0.271826 -5.94853 7.66293 
2.07202 6.88908 -8.92547 
1.4943 3.73327 -2.87648 
4.0628 1.83656 -3.03381 
-0.453725 6.86893 14.1484 
-2.70088 1.64479 12.9476 
8.38562 -1.7641 12.3191 
-9.76833 -5.46633 -14.2985 
1.91291 6.25852 -8.71656 
1.17347 7.43128 -8.7369 
-2.49144 -2.87082 5.96984 
8.16796 6.14458 -7.0509 
2.27181 12.7544 -4.34094 
6.05668 -1.55211 3.69522 
5.64597 -2.34046 4.52339 
-2.91326 6.57274 -10.9688 
-10.7712 -14.6738 -2.62064 
4.68038 6.0472 -7.35576 
9.5756 -1.38228 13.9098 
0.637844 -5.24717 9.19589 
-2.04353 0.242959 -10.6108 
5.75655 6.51092 -7.72898 
4.5033 6.73247 9.54093 
-1.08304 5.85652 16.7604 
0.826989 4.38415 -11.3987 
-3.86393 -5.06637 6.35084 
4.36809 -5.22802 10.1039 
-5.70442 2.80348 -15.1978 
-11.2783 -9.76389 -9.01222 
3.86772 -0.17808 -0.838034 
-5.50155 -4.18181 -17.5138 
-7.06913 -2.74017 9.74126 
8.75106 2.37184 4.73126 
-5.33762 -1.0566 9.98424 
1.72681 -1.4205 12.3681 
-8.0027 -11.4691 1.65144 
-4.3187 -4.60255 7.75802 
4.60348 11.8143 4.41666 
4.68699 0.944626 15.1592 
-8.81943 -5.08274 6.40175 
2.08965 9.55071 8.44798 
-7.49744 -10.7957 -2.66187 
-9.53165 -6.25326 7.38038 
10.8392 11.1192 -2.46282 
-8.3696 -10.3029 -7.03204 
1.03 9.84022 10.8686 
-5.69969 -5.69857 -11.2413 
-0.549378 6.94808 13.4283 
3.51641 10.5138 7.48331 
1.80608 7.51087 10.7292 
-0.0822758 2.50763 -4.9923 
5.59737 -2.25956 3.32444 
-6.27371 -6.10081 -16.5791 
-2.97747 -1.31125 -10.2192 
-3.325 -0.749162 -16.5435 
3.89514 15.5191 3.82896 
10.5186 4.85084 7.24769 
-4.87817 3.8344 -13.6231 
-1.84192 -2.85839 6.04721 
-7.84116 -7.41099 -13.821 
-2.67049 2.95841 14.9138 
7.71701 8.46014 -5.55765 
6.16496 6.78405 8.28538 
3.40505 11.6059 5.44995 
-0.468964 1.07397 -7.44177 
-10.1844 -5.0903 -15.9836 
-5.56721 -7.49017 4.38211 
-1.14701 1.96099 -13.8389 
-11.9852 -9.50491 2.7659 
-12.8746 -11.0629 -6.70648 
-1.96966 0.114373 -8.94422 
-11.0898 -7.97784 -10.906 
6.00943 9.97789 -5.11201 
5.72194 12.0316 -3.66409 
-5.10444 -5.81103 -10.7838 
5.1664 3.34637 12.4576 
-11.82 -9.0652 -9.16256 
7.30668 2.71352 -6.19186 
-6.59884 -8.37525 -4.86028 
2.06345 13.4614 -4.5096 
-2.98394 -0.253535 -16.0694 
3.21996 9.43797 7.76757 
2.95093 0.337712 14.0749 
9.4472 8.71226 4.00589 
-7.7886 -5.05951 6.15541 
9.3788 3.46392 9.29808 
6.92387 11.6209 -3.53764 
11.7301 8.47494 -3.88759 
-7.11553 -9.69751 -5.661 
-6.52858 -6.32217 -16.0933 
3.66699 15.1614 -2.15172 
-8.00726 -7.14886 -13.9505 
-13.591 -12.2595 -5.52561 
11.201 6.31594 4.98973 
-12.4877 -11.7592 -6.06725 
5.31195 10.5188 -4.95714 
8.41435 13.6208 -0.264355 
8.29434 0.944595 7.52821 
4.33356 3.89415 12.4475 
-11.9336 -14.3846 -2.24864 
-12.7509 -8.46657 -11.9024 
-10.7727 -9.20737 2.02013 
-7.31604 -8.14298 -10.7817 
12.2011 8.79998 -0.249897 
-1.50533 1.3701 13.1816 
1.78585 6.11608 -9.38115 
-4.64525 -2.18711 9.44346 
7.97751 11.8861 -2.93958 
8.75173 6.18486 7.02468 
0.260594 2.09127 -6.97825 
10.6816 11.5445 -2.20557 
10.8248 5.94701 5.83848 
8.63067 -3.27835 13.347 
-4.696 0.545957 13.8135 
6.14453 4.53012 -7.22869 
8.29039 6.14236 -7.0014 
-5.60866 -3.99839 -18.9753 
-1.08838 2.86723 14.45 
4.50992 4.2657 11.94 
-2.23387 1.74437 -14.1663 
8.45445 -3.18904 10.3826 
2.46816 5.77544 11.9107 
-7.26111 -3.36552 7.58868 
6.18021 -2.15344 9.50772 
0.28749 -4.2768 9.68705 
6.32311 11.5598 -3.78785 
-2.9902 4.00603 -12.7649 
4.42409 12.1781 4.13564 
3.70106 1.665 15.1609 
-12.2777 -7.51235 -13.3612 
-5.35687 -2.40945 -18.3718 
8.21666 13.4506 -0.00410471 
-10.6921 -4.89927 -16.1893 
-8.82122 -5.24294 6.89199 
6.99006 -0.749453 14.8486 
-4.026 -3.47565 -7.10408 
9.31284 2.12391 8.92798 
2.98433 12.0137 6.46326 
0.288109 4.56199 14.7788 
-6.11371 -5.48322 -15.439 
2.03952 7.07332 10.979 
5.77419 -2.26677 5.49847 
5.58524 -3.48859 11.7077 
5.72112 -3.32506 12.0031 
1.23285 -2.12389 3.00023 
0.826706 4.75398 -9.98491 
-0.761168 3.54749 -12.3625 
-3.5402 -3.0567 9.19938 
3.92905 15.6197 1.52597 
7.60725 2.70658 -6.5282 
7.54478 13.8873 0.226371 
-1.22209 0.868092 -6.72541 
2.98732 -3.61906 3.23414 
7.96423 1.29751 5.03396 
-12.4784 -8.03711 -12.2678 
9.19754 12.5916 0.247263 
0.0596774 3.743 -12.053 
7.42799 -0.233134 10.0518 
7.14788 14.2463 0.125592 
3.99017 -3.62584 2.50994 
4.95027 13.8181 2.1184 
1.2204 4.00277 14.5209 
5.47505 8.99489 6.5459 
6.08719 -0.655949 -2.13445 
12.4187 9.36548 1.20096 
9.65669 3.99613 5.14724 
6.40159 -1.38888 14.1048 
9.60315 8.56288 4.03339 
-0.427756 6.57209 -10.0091 
4.06747 -5.66792 9.75903 
1.81241 -6.48216 6.90442 
7.78734 12.5647 -2.57947 
-2.0787 -2.41242 10.2542 
-12.2947 -8.50526 -9.52978 
7.15644 12.7603 1.58632 
-5.59096 -6.29634 -4.74982 
-0.299197 -2.60585 10.7701 
7.22037 9.05898 5.2395 
0.244852 6.79978 13.7556 
0.42612 -1.85102 3.48692 
-8.70095 -11.2135 1.30027 
4.37884 -4.98628 8.68856 
-11.0424 -15.6048 -2.5187 
4.33629 -4.32402 3.66403 
-0.0687096 3.04374 -8.41379 
-0.550063 6.73213 14.2781 
6.13474 2.56974 12.4723 
4.26807 5.86223 -7.03859 
1.8921 11.2354 8.01796 
-8.27811 -11.378 -3.19034 
2.69849 13.4106 4.2635 
10.9503 9.64699 1.91923 
1.84733 -0.396357 13.1295 
2.41025 7.29132 -8.50305 
-3.23117 -2.24593 -6.6971 
4.738 0.527217 14.899 
3.09918 -7.05458 8.91334 
-7.75146 -9.0914 -12.1583 
-6.38799 -5.77732 6.18487 
-13.4066 -11.9126 -5.47666 
-3.24572 -4.8991 2.74562 
-6.6317 -8.98925 3.43141 
-0.85205 0.493108 12.844 
8.57883 4.16458 -8.57828 
5.07036 9.1913 6.66188 
9.59359 4.77395 -1.06661 
-6.30863 -8.00435 -8.43977 
-5.15952 -0.1409 11.5513 
7.7973 1.06019 4.81507 
4.02918 6.53386 10.1356 
7.36436 2.14959 -5.81974 
-5.08061 -5.94711 -9.65555 
1.1949 10.0012 10.6989 
10.9907 6.25442 5.41049 
-0.0565716 2.1687 -2.51618 
1.14983 9.91062 9.44505 
-0.523737 -4.41627 9.2732 
-12.273 -11.3601 -7.88796 
4.7563 -0.917371 -0.662512 
2.88911 13.4287 6.16668 
2.13177 11.9954 8.16861 
-13.4371 -11.9574 0.222144 
0.507366 -4.46086 5.91905 
-8.64369 -2.29183 -19.2976 
5.26407 6.19767 9.49131 
6.21297 3.32044 11.6115 
2.98529 -3.14255 2.72026 
-0.455423 -5.87687 7.97214 
-7.78088 -4.12252 6.85651 
-5.56669 -0.826509 -17.3371 
-8.17097 -10.6566 -2.50075 
-3.01588 5.88815 -11.4322 
7.34966 1.59253 -4.30522 
7.96399 2.0366 -0.201559 
9.25522 -2.53796 14.1929 
12.0402 8.48538 0.271094 
-5.8773 -7.34651 -8.54747 
10.5113 5.75647 2.32412 
11.5961 8.76979 2.37914 
3.45566 8.40532 -7.17619 
-8.71355 -11.8942 0.564918 
5.074 4.79426 -6.68007 
-5.52629 3.16087 -15.0971 
-1.51606 -1.10707 -3.86326 
3.01996 0.618432 14.3179 
-9.01667 -8.88468 -11.4743 
-4.72473 1.15771 -15.5557 
8.43474 7.00539 -6.38153 
-3.76481 -1.59354 -16.0889 
3.41571 2.96403 -3.54745 
-6.72534 -9.0906 -5.85503 
-0.799707 2.69973 14.4299 
12.5175 9.93955 -2.81993 
-10.9176 -9.97604 1.38194 
10.7272 1.70928 7.3038 
-10.4416 -7.39723 2.95906 
2.74583 0.624926 14.1033 
1.84217 10.8594 8.60708 
-12.7943 -8.26476 -13.6917 
-11.659 -10.4556 -8.04283 
5.48805 13.4839 2.06019 
-8.35086 -10.8981 -2.44175 
4.13077 6.18992 10.1259 
9.71505 4.00815 5.49148 
-9.56698 -6.17322 5.09547 
-9.89325 -12.2128 -7.63016 
-1.41959 -0.273476 -5.40608 
4.43184 -3.66916 2.11117 
0.151344 5.8274 15.1425 
1.41487 10.5483 7.9964 
-14.732 -11.9861 -8.65358 
-9.35493 -12.0878 -5.23191 
-14.1543 -14.0912 -3.41015 
-3.40664 5.72155 -11.7768 
-2.00006 -1.10966 -4.17142 
-9.58473 -11.7115 -8.39369 
1.98776 11.5841 7.36268 
-3.93042 1.4937 12.4686 
-13.3751 -12.4358 -6.33779 
-9.97719 -5.10388 -14.5191 
0.946719 4.96901 -10.0797 
0.00509475 2.41505 14.4869 
-9.30979 -10.3518 1.73611 
3.30248 13.4139 -3.56442 
-14.4222 -13.7035 -3.44158 
-10.8803 -5.40339 -14.6798 
10.5478 2.16453 4.41023 
7.58899 12.3055 1.76956 
11.3094 10.1908 1.0959 
9.90384 6.07795 6.16257 
10.3341 9.6528 2.3743 
1.504 -2.50739 11.4934 
7.41404 5.86487 -7.57043 
-8.47447 -4.56187 6.65881 
-4.47646 -3.96392 -13.8468 
9.93075 9.55471 -3.92447 
6.8485 5.23532 9.29336 
-8.16094 -4.50158 7.50095 
-6.44748 -6.43078 -16.1189 
-0.127531 2.86284 -8.16677 
7.30955 0.0604372 6.5353 
7.45655 1.76182 -4.21804 
1.92988 11.3085 8.12523 
4.83528 6.35432 -8.03358 
1.74646 12.1333 -5.07329 
3.28817 13.6945 3.43435 
-4.96642 -2.74859 -18.5512 
4.34771 -3.4834 2.04194 
12.1982 8.46618 1.98349 
-3.08789 -3.46353 -1.0271 
-0.875464 6.16837 14.9626 
5.48288 2.19001 -4.32477 
2.68472 1.99549 -2.14731 
8.45157 -1.42547 14.7801 
-8.45977 -11.1735 -1.42243 
-10.331 -8.34151 2.71505 
2.25089 3.93093 -3.74692 
-8.2979 -4.4593 -16.4049 
4.14886 16.3183 -1.14295 
4.57689 5.30619 10.9352 
-11.5532 -6.92972 -12.2655 
0.89603 1.42386 -0.337689 
6.26563 7.18237 -7.04147 
-11.6605 -6.34689 -14.685 
-11.2699 -15.537 -2.67045 
3.29398 11.1549 -5.22425 
-0.0285585 7.96778 11.7525 
8.28825 2.9271 -6.37565 
-8.82584 -12.5815 0.309017 
-10.2827 -7.18741 4.22405 
11.0376 12.1526 -0.745096 
8.17529 0.415892 13.0026 
-7.84808 -0.192431 -18.1473 
11.2623 6.82529 3.34197 
11.7396 3.37127 5.85221 
4.45114 16.3621 0.936179 
-2.01882 6.52807 -10.6572 
7.95796 2.45433 -3.60099 
0.77622 9.31499 10.9947 
-10.1388 -3.50597 -18.5027 
13.3749 10.4146 -2.3191 
-1.73948 0.507038 -9.1372 
9.53643 12.9366 -0.485764 
3.6664 15.0362 4.11984 
-1.54521 -1.12491 3.60785 
-4.60544 -5.49579 7.01831 
8.61391 -2.57918 9.90043 
-12.0151 -13.0121 -1.25647 
7.06983 12.6949 1.70143 
8.1057 12.6801 -2.35439 
3.01118 4.86444 -5.22437 
-10.3985 -10.1514 1.45258 
10.1697 10.438 -3.2282 
-6.35609 -8.12182 -8.29273 
-12.2228 -11.0478 -8.86378 
8.08547 14.3291 -0.618279 
-3.46744 -4.17755 8.42286 
-7.83296 -3.12266 -18.1819 
8.02274 2.95172 -6.57212 
-0.583119 6.80933 13.1431 
6.22897 -3.41515 9.93584 
-0.990159 5.78388 15.3533 
-8.01976 -7.89065 -13.2273 
0.717878 7.12506 11.8417 
-7.79698 -2.56228 -18.6446 
-4.02266 -2.30044 9.5609 
-3.51145 -4.14601 3.63144 
3.63341 16.0292 -2.82894 
1.84168 -6.79753 7.38351 
3.83322 5.99945 -6.99564 
10.6715 5.49571 5.92603 
-1.23304 0.205618 -2.18591 
-8.14157 -6.56239 -14.313 
5.22716 -2.94049 0.759493 
10.1101 4.20394 8.14306 
-4.61618 -6.32194 6.55142 
1.68792 4.33809 -3.74986 
10.2164 5.33028 1.99342 
5.18013 8.85317 6.92556 
-12.2853 -8.24438 -11.1931 
-2.94694 2.48705 13.5086 
7.94131 13.7748 -0.238441 
-9.19518 -3.70943 -18.3847 
8.2501 1.37778 6.01713 
-13.1441 -11.0801 1.25016 
-9.381 -4.14117 -15.8562 
13.1325 9.56655 0.759432 
7.78077 5.45521 8.25959 
-7.89185 -11.3207 1.71307 
4.74933 8.63142 7.46413 
-9.23414 -7.28281 -12.9615 
-11.9164 -9.51063 2.06755 
-10.487 -4.61291 -14.9411 
-8.64593 -8.24564 3.52282 
6.2182 -2.26951 10.3428 
7.7669 8.2987 -5.6569 
3.60611 -2.57003 12.2185 
5.74833 11.9188 3.46309 
6.2486 2.23103 -4.94127 
0.308261 -0.429868 2.01523 
9.66034 1.25697 8.27 
-4.23353 2.81504 -14.1192 
7.89815 -4.41616 12.473 
-10.4812 -4.07277 -18.134 
12.0843 3.95497 6.59038 
1.64137 -0.871783 1.49767 
2.52991 5.19738 -5.19907 
-8.86241 -11.7445 -1.77317 
3.12459 -4.16921 10.8484 
-5.16978 -5.50388 -11.8514 
7.73643 1.26737 2.71921 
-7.38853 -10.2732 -4.80765 
-4.7551 -2.95319 -17.84 
1.99265 4.58741 13.4898 
-0.0122488 -2.01708 3.78938 
-7.54996 -4.03653 6.96912 
-5.15721 -4.43892 -12.9133 
4.76164 1.64374 14.393 
-10.196 -9.33317 2.14682 
3.08998 13.8922 5.59686 
-1.93366 -3.40164 9.53621 
1.46592 3.32546 -2.56765 
-5.51095 -6.30159 -7.63163 
9.33041 -2.01669 12.7267 
1.22552 8.83323 11.5987 
3.07399 12.4613 -4.28703 
5.50939 -1.69534 -0.643581 
-9.31977 -5.81881 6.79984 
8.0249 1.34778 12.2971 
6.17651 -2.37223 10.8927 
-6.98663 -9.7226 -4.49282 
7.60509 2.15019 -5.69415 
3.94653 14.5205 2.16073 
-3.74191 -3.53834 8.79455 
-2.60404 7.37352 -11.3633 
0.760261 10.5099 -6.65073 
-13.9683 -12.6972 -0.496731 
7.82622 -2.84682 10.5636 
1.08714 0.468136 0.516274 
-14.2716 -13.2544 -1.60996 
-9.07358 -3.30369 -18.8408 
9.85451 6.58673 5.57989 
-3.01867 1.71843 12.8809 
12.7657 9.98863 -2.08482 
-5.61935 -6.63397 -10.3682 
12.9137 9.46734 0.961481 
5.48018 16.1344 -0.541882 
6.85626 8.10464 -6.19351 
8.24825 10.2577 3.34619 
9.60644 2.64456 10.1702 
9.53715 5.71249 -7.0427 
9.27764 4.00718 0.671579 
10.6982 12.1271 -0.347552 
5.21827 8.14239 -6.69667 
-3.58073 -4.55511 5.78053 
-5.51847 -0.529254 12.4412 
7.75616 1.8178 -1.00375 
-10.7979 -14.7772 -2.30139 
-12.6232 -11.1556 0.534715 
-11.0452 -9.89505 -9.08181 
1.43117 4.94547 -4.95855 
-3.32228 -4.79858 1.52438 
6.17833 -3.0068 11.9847 
11.8368 3.63437 6.32933 
6.38239 -1.26776 5.36307 
-8.03395 -9.99638 -5.5109 
0.261287 3.6967 15.5813 
-9.06248 -12.2112 -0.76127 
0.0453722 10.9711 -7.51952 
6.82183 7.16793 -6.75377 
-2.52962 -0.673777 -9.81987 
6.60315 10.34 4.43063 
3.78916 -5.78166 10.0424 
3.91553 8.25515 -7.12951 
9.85748 -1.42045 13.7517 
2.44768 -6.70616 6.64834 
5.39457 -2.93066 5.92236 
0.231175 7.35498 11.9586 
-0.905549 2.39693 -13.0147 
8.69957 13.2827 -0.0551378 
-2.00543 2.78599 14.0499 
5.20844 -4.21851 11.7904 
-7.9685 -10.7543 2.0515 
-9.69215 -6.08501 -13.8171 
-3.14644 1.022 -15.0441 
-3.1567 0.45599 11.8499 
1.80455 3.14671 -2.65078 
8.0049 7.63789 -6.05591 
9.6409 11.5716 -2.56385 
-3.54883 -4.04111 -0.114074 
11.5957 7.98098 -1.30321 
-10.1621 -7.11364 3.36243 
9.28981 6.66894 -6.34159 
-9.47354 -12.9649 -0.362684 
10.1632 3.14246 5.02036 
9.26593 2.30268 10.316 
-6.54464 -1.46722 -18.1334 
4.25861 16.2169 0.34406 
6.50487 3.18865 11.5089 
-4.61066 -3.04823 -18.5014 
-3.06335 -4.25141 0.776096 
2.46392 10.7708 8.70963 
-4.793 -1.01414 10.1946 
-12.1598 -9.90109 3.77314 
-11.1288 -9.80493 1.4081 
6.01965 -3.40092 12.5084 
-1.03503 5.92994 16.1096 
1.51015 10.2499 8.22399 
-6.97367 -2.72039 9.50674 
-2.31197 -3.10549 6.39954 
6.31497 2.90484 11.9731 
-0.667595 6.74039 13.2442 
0.920467 3.88726 14.877 
3.54208 4.15622 12.7558 
-2.16814 -0.561135 -6.68516 
-9.10717 -5.60145 -14.7371 
-13.5155 -11.6054 -6.34342 
2.07695 7.54264 10.4845 
-6.10512 -3.238 -19.2202 
-0.0208354 3.22031 -12.5854 
-6.17441 -1.45652 11.1516 
-6.92268 -0.553354 -17.6216 
8.95019 9.66538 3.38516 
1.16829 -5.6179 6.57433 
3.37301 3.09514 13.9557 
4.39077 4.50209 -5.84657 
1.21279 2.75847 -1.81305 
-2.10905 -1.63262 1.1174 
-0.608 5.61076 -10.7479 
4.97118 -3.76885 6.91557 
1.88865 7.73836 -8.24764 
-14.782 -13.7288 -2.33392 
7.10336 11.9698 2.42484 
-4.84194 -4.38055 -9.71394 
9.45458 2.57425 10.3429 
-3.7439 -5.25078 2.99815 
0.414888 3.23576 -4.54979 
1.31382 10.3454 9.69844 
11.2251 7.5457 -2.56556 
12.3842 9.44045 -2.73275 
-10.2564 -10.1575 -9.33557 
1.88621 -3.04837 3.57551 
6.79071 14.0032 0.618402 
-9.61796 -8.98493 2.54884 
3.34867 14.6617 2.43329 
-14.3271 -13.5287 -4.59176 
6.1816 5.31369 -7.76892 
0.80683 9.49016 12.0849 
-3.4092 -3.74142 8.75908 
2.62252 14.2685 -3.76089 
6.64291 -0.938446 4.35491 
9.88653 3.21634 4.96682 
-6.04898 -6.05365 -13.48 
6.89733 11.2343 3.27948 
-3.18674 -3.33258 9.14437 
-3.73453 -3.95148 -3.12025 
0.378914 6.72483 -9.56617 
-7.0678 -2.80528 9.48212 
7.45387 1.69783 -3.86265 
-1.33477 1.29906 -10.1728 
6.80718 -0.635954 5.80454 
8.91138 4.08878 8.93202 
-1.54204 -1.56759 -1.42188 
-8.1307 -0.166608 -19.1767 
1.54125 1.81923 -1.13057 
-1.89276 -1.28541 1.1019 
-15.435 -13.8969 -3.62415 
0.126241 7.50761 11.9031 
-6.44588 1.73431 -16.2516 
7.98988 8.21424 5.51231 
6.07001 4.7068 10.4292 
5.3423 12.3667 -3.59683 
-11.4495 -14.9861 -2.48561 
7.45986 -1.41426 14.4679 
2.17783 4.7592 13.1499 
-10.6489 -11.6341 -7.46487 
2.53195 10.5045 8.4742 
-5.88812 -7.32237 -0.704723 
3.22019 12.204 6.445 
-0.275446 1.60044 -1.30468 
9.16235 2.28952 4.47842 
4.20311 2.65356 13.7381 
-8.65684 -9.3919 -11.292 
-2.32977 3.34058 14.3646 
8.69672 13.8522 -0.620852 
7.23572 -2.79646 9.96641 
2.30619 -6.05853 9.17898 
5.70143 -2.79096 8.56291 
4.33804 -4.69633 3.42608 
-5.73915 -1.8232 9.27339 
4.5656 5.70441 -7.0517 
5.05067 7.93157 7.80678 
-0.84229 0.715398 -6.83017 
-10.3985 -11.335 -7.95033 
6.01546 3.42163 -5.92873 
1.07058 -5.48043 9.16422 
8.29002 9.912 -4.27931 
11.1078 2.32341 7.18373 
-2.9654 -0.724121 -13.7395 
11.9261 7.1967 3.73504 
9.04533 4.69009 8.08799 
-1.08234 -0.349735 -4.56695 
-9.96522 -6.99782 3.44979 
10.995 7.667 -5.07035 
-4.70671 -4.68676 -6.49603 
-7.14165 -6.81098 -15.063 
-1.43308 4.76608 15.7243 
-5.96507 -7.89171 3.09097 
7.50443 3.99509 10.0878 
6.10811 15.3634 -1.12199 
-2.62063 -1.45748 -5.54417 
6.31602 -0.803335 -2.11086 
13.6313 10.8038 -1.9558 
4.8736 -3.60006 4.68978 
6.18411 13.0357 1.99844 
-1.62201 4.94815 16.3416 
0.589139 2.41988 14.7511 
-2.45014 7.59747 -11.6642 
3.69823 -2.39092 12.3504 
-0.165312 3.15388 -10.0711 
6.57566 6.89223e-05 14.7774 
-10.356 -12.5114 -6.94124 
0.688999 6.81262 13.6347 
7.50583 -1.35494 14.8103 
10.2132 4.03665 5.69868 
-1.38046 -0.826662 -4.32158 
-3.68524 -0.678724 10.887 
-12.7783 -8.76886 -11.1365 
-10.7382 -4.80902 -16.3369 
10.9962 5.44594 5.99275 
-13.1099 -11.3069 0.0678808 
-9.41055 -12.3543 0.261966 
-0.8915 2.47251 14.2367 
-0.898584 0.191642 -6.00696 
3.32365 14.3162 4.54483 
-0.207845 2.92725 -12.5189 
-0.410853 -5.69542 7.77376 
1.30364 5.95846 13.8184 
-4.01751 -2.46323 -13.6815 
-0.814441 -2.90586 10.368 
8.93789 -1.87834 11.4924 
-12.5132 -12.9271 -4.91174 
8.59685 1.20867 11.9074 
-2.36609 -2.92649 -0.792698 
12.027 8.50919 -3.88109 
-0.102062 -1.31212 3.19199 
10.7123 5.85801 3.85303 
1.83058 5.63179 -5.36007 
5.24588 -2.78536 3.2769 
-8.5255 -8.65956 3.26036 
9.93737 2.28053 9.21341 
-5.12097 -5.83716 -2.8097 
2.25416 11.964 -5.04156 
12.4154 9.60726 0.951066 
-6.0022 -7.37063 -1.19698 
1.86356 7.10794 12.0907 
5.96018 4.3657 -6.90314 
10.4794 7.84903 4.11733 
6.14141 -1.08861 1.11427 
4.59237 6.98156 9.26542 
6.9496 -0.130776 3.6878 
3.68004 15.3638 1.5109 
-12.2634 -7.40249 -13.9923 
3.30643 15.2642 -2.24436 
-6.49809 -6.58074 -12.398 
2.64746 -1.24532 12.7595 
8.62404 9.70855 3.59254 
1.57111 5.77933 -9.74188 
-2.12394 -4.26736 7.69761 
3.16565 -0.87238 0.316185 
-5.2824 -6.72429 2.19473 
9.60843 9.52049 3.03221 
4.86172 10.86 5.15759 
-4.29919 -3.79472 -7.81364 
-4.25858 -3.91192 -14.1304 
7.24631 0.996548 -1.14331 
5.63636 -1.97558 1.71099 
-6.79179 -7.12122 -15.1618 
-12.8503 -11.3358 0.725063 
11.7732 8.88262 2.13402 
-2.73528 -0.638887 -12.1691 
-10.3741 -7.64209 2.94191 
7.88771 5.21439 8.46256 
6.06533 12.616 -3.15143 
-2.6967 -2.4481 9.96561 
-10.2395 -13.6041 -0.929869 
8.87156 5.68407 7.40673 
6.47088 -3.06098 11.8043 
-12.3812 -10.8083 -7.67862 
-0.830741 5.17572 14.8962 
-8.41453 -11.7102 1.25163 
-9.535 -12.0672 -7.47571 
5.46144 15.1115 0.481966 
6.26365 13.4943 1.47733 
5.33167 1.30635 14.2473 
1.20023 6.19046 -9.66854 
-5.20057 -0.218614 11.9739 
8.67686 10.3542 -3.81156 
-4.44583 0.243372 11.2726 
4.56693 -0.284963 14.1119 
7.93209 2.16473 -1.56971 
-16.018 -14.7537 -3.79845 
-0.330124 7.17034 13.2243 
3.57893 14.5179 2.43734 
0.35866 -4.64874 6.23744 
5.9672 -2.92019 11.6866 
8.72285 1.66076 11.1206 
-9.01789 -4.32142 -17.5158 
-12.7547 -13.8179 -2.14088 
0.914756 -3.1507 10.7657 
5.14919 -2.87574 2.86196 
1.60484 5.71563 -8.24507 
8.80635 -2.90634 13.453 
4.95237 0.86002 15.0447 
1.86758 5.9442 -6.90105 
-4.24549 -0.316461 10.9344 
10.8073 5.16307 6.78967 
-1.52863 0.521313 -7.13851 
-12.6081 -13.218 -4.59917 
4.30768 16.6519 -1.36454 
-0.579619 -0.865649 11.9184 
-4.48333 0.338929 -16.053 
-3.69068 -5.11701 7.46425 
1.82708 9.97293 9.4521 
9.7556 11.2449 1.19625 
10.6584 6.71754 -6.04568 
-13.1798 -9.7621 -9.60336 
-7.08499 -2.56517 -19.1555 
6.44019 1.98433 12.8182 
6.61866 1.85272 -4.85415 
8.90335 -1.51068 12.7297 
12.611 11.6121 -1.18142 
-5.76474 -7.38402 5.31008 
-7.63685 -8.76764 -10.347 
-1.49587 -2.2247 10.5643 
-9.91464 -12.8931 -6.63265 
8.95796 -2.52989 11.9185 
-7.64363 -3.68848 8.34579 
4.35738 5.46921 -6.85608 
-7.92464 -5.66654 5.65573 
-0.955311 9.54935 -8.84693 
6.63239 -0.764448 14.6765 
-9.11524 -2.54022 -19.4577 
6.4056 -0.362799 -1.07507 
0.110263 8.06524 13.593 
5.1944 -1.0388 13.8968 
11.3242 2.24015 9.02717 
-1.03354 4.36956 15.6051 
-9.93728 -4.44681 -17.307 
-12.3399 -8.54896 -9.81233 
5.80818 -2.02398 2.69446 
6.89829 0.00682331 14.3523 
3.61545 -1.80968 0.981944 
6.35967 7.00282 -7.13667 
-6.95842 -8.59853 -7.43148 
3.93804 15.4533 2.24766 
1.58587 2.88286 15.4536 
-9.76884 -13.0348 -6.67848 
3.41506 -2.77006 12.0094 
-1.18437 -4.32569 7.00924 
2.74589 2.96692 14.4052 
8.88902 2.09285 9.28154 
-10.6503 -7.55025 -11.5853 
-5.94005 -8.13894 4.47082 
-10.3525 -10.6062 -8.80974 
-0.677202 0.823277 -0.627836 
-5.79576 -0.95426 12.0675 
7.8239 6.52488 7.34142 
11.0991 6.51918 3.65368 
-5.03578 -6.766 6.05928 
-7.50116 0.669802 -18.3572 
7.25988 10.9372 3.32585 
-3.62662 -1.52319 -15.3855 
-9.66143 -6.74024 4.27288 
0.41668 8.34962 12.035 
9.00399 1.46359 8.1838 
-6.45289 -8.31088 -8.00651 
5.58367 6.17367 9.27149 
13.0129 11.4181 -1.37256 
2.74455 -3.8456 3.57955 
11.4013 8.56373 -4.20775 
10.6681 6.46535 -1.13216 
-10.7125 -9.73122 -9.39714 
-3.05114 -3.71014 5.25525 
7.237 0.81444 0.229006 
0.928887 -1.03643 2.11129 
3.94811 0.379532 -1.37011 
7.01093 2.24669 -5.49767 
10.2059 5.99461 -6.60012 
-5.57535 -5.84381 -7.81009 
-14.3918 -13.3339 -5.31345 
-0.958345 -1.28163 11.4352 
-6.66385 -2.15869 8.73126 
-6.77767 -8.74907 -0.108193 
2.26675 -3.56924 10.9648 
-10.0432 -13.0315 -6.36358 
3.99529 -0.0775146 14.1576 
6.71092 -3.06295 9.65402 
1.32673 9.71968 9.98191 
-9.65468 -8.11563 -11.8065 
-9.76887 -5.17259 -14.6942 
-4.64674 -4.25473 -8.32361 
-1.78513 -3.81947 9.27927 
4.78331 5.65065 10.4078 
5.09174 1.92678 13.8864 
4.5242 17.2891 -1.47904 
-6.98106 0.340805 -16.9678 
8.03066 6.5153 7.2029 
4.28666 3.37463 13.0018 
-3.34848 -3.18161 -1.70358 
6.72304 0.149033 -3.14041 
4.08818 -2.21422 1.17762 
-12.2934 -9.94322 2.98149 
-11.1551 -15.2626 -3.41554 
0.17575 -6.29104 7.92478 
1.65088 3.90546 14.4243 
-11.9915 -7.34407 -12.9956 
3.51366 -1.97935 1.22492 
7.08603 0.440322 1.02599 
6.58442 -0.540918 2.43078 
0.54888 2.32519 -0.927664 
11.0877 6.96244 4.58502 
5.99379 -2.48508 9.60918 
-11.1984 -15.2162 -3.14329 
-2.88171 -3.35554 5.06331 
7.096 8.56663 5.80565 
1.13454 11.8189 -5.57229 
2.84596 -3.95585 3.68192 
8.57887 -1.8734 11.8149 
8.68814 3.95707 -8.76986 
1.92086 5.83291 -5.69647 
3.6553 2.976 -3.83269 
8.43184 7.50781 5.81796 
0.371765 3.55483 -7.1719 
6.78926 4.30232 -7.41837 
-6.8808 -4.68917 6.76235 
-7.32081 -1.00937 -18.0956 
-4.57846 -6.02179 5.2838 
-7.98354 -0.34818 -17.896 
8.43087 1.55787 11.91 
5.96225 15.0966 -1.34689 
3.2981 5.33443 -5.87169 
8.22903 0.849084 11.6052 
4.04793 5.65718 10.9468 
3.53025 6.07163 -6.84886 
-9.09894 -10.3908 -9.94503 
5.54637 -2.41377 3.80953 
-0.779352 2.12247 -9.6626 
0.215457 8.34398 13.8185 
-4.43234 -2.79961 -18.244 
1.33179 12.6276 -5.13964 
5.94889 10.6129 -4.66025 
7.33854 -0.154738 8.47009 
-0.695903 2.99191 -12.8112 
-12.8215 -14.6082 -3.07761 
11.6949 7.46026 3.56509 
-13.0617 -13.5259 -2.02442 
0.883423 -3.51958 4.68757 
8.23988 1.26271 8.81544 
9.18272 3.06914 9.81496 
-4.88803 -3.52953 8.37532 
10.2246 4.79505 7.41322 
0.510425 11.3715 -6.13948 
8.79534 3.00491 10.1305 
7.96117 -4.15236 12.3607 
7.97564 1.34225 4.89832 
10.2664 6.54929 5.404 
6.15983 -0.138404 -2.64147 
2.06541 -5.49219 5.79468 
-13.2901 -9.7856 -9.73385 
2.7918 6.59209 10.7956 
6.36848 -0.306942 -1.791 
-3.81268 -0.565247 10.9222 
10.9895 5.56778 6.28234 
6.26056 0.791619 -3.59928 
5.9796 -3.39604 12.3682 
0.247001 3.63462 -8.82683 
-1.55778 5.52706 -11.1746 
5.53836 12.4511 -3.4406 
-9.71365 -10.8332 -9.06448 
-5.49 -4.60286 -18.1646 
-14.4002 -11.8376 -6.98106 
4.61016 5.47172 10.7271 
7.57661 -0.496034 14.6207 
-6.24233 -7.22808 -9.30457 
-15.446 -14.3645 -0.368688 
4.17139 15.8836 -1.43757 
7.96914 0.810052 8.0277 
2.68721 11.9721 5.59784 
6.12005 -2.90505 11.7472 
5.16221 -3.35103 6.18432 
-8.05107 -9.66384 -8.56119 
6.633 8.80933 -5.73048 
11.3985 7.51024 -0.200947 
-10.9845 -15.0765 -2.39825 
10.9296 6.66727 4.94501 
-0.153806 1.63693 -0.41433 
-5.14628 -4.12887 7.81824 
0.000274014 -5.85853 7.62183 
4.04285 11.4491 6.2103 
8.97007 3.44706 1.18602 
-13.0576 -9.83799 -8.11733 
-1.46667 1.60382 -13.4096 
5.94491 -1.12693 -1.17419 
-9.61198 -6.19549 5.45632 
-12.4359 -10.9738 0.124428 
0.235816 10.4584 -6.87967 
6.00469 6.44568 8.72232 
-4.75515 -5.55974 -9.21745 
0.916546 1.33376 -0.199844 
4.74912 -1.07366 -0.587524 
-3.15362 6.56951 -11.9949 
-1.01873 -0.597847 -2.67186 
-10.6193 -13.9908 -5.39334 
10.6824 1.77644 6.28706 
7.89417 2.38376 -6.15142 
8.25236 12.6007 0.957315 
-5.50901 1.1938 -15.8178 
3.81966 -4.88955 10.5855 
-10.8396 -7.93972 4.95064 
-0.423311 -3.15904 5.32025 
-13.8142 -12.3569 -0.0485213 
-2.16593 -1.08592 11.2596 
-8.87989 -7.59847 -12.8741 
1.75351 -4.63235 10.0475 
-9.5342 -2.43685 -19.319 
8.76408 -2.93493 13.1947 
-14.1303 -12.5159 1.12138 
1.50896 5.33225 -6.69141 
-2.17536 0.168331 -11.4841 
-2.21256 6.35386 -10.7942 
6.80926 -1.71888 10.0632 
-2.26887 -1.61118 10.7774 
-3.0815 2.80816 14.0122 
5.16941 5.49526 -7.42119 
0.391293 4.23347 14.9972 
-3.27368 5.5246 -11.7996 
5.14287 0.256391 -2.24864 
2.45476 -7.56456 7.46211 
1.10195 -6.68987 7.65577 
1.28291 10.263 9.84958 
-3.65417 -5.47085 7.66545 
4.48382 -3.2234 12.0888 
-3.38225 -2.15107 -8.70578 
7.85451 6.93791 6.88108 
-11.3934 -9.1782 1.82304 
4.52205 15.9909 0.224779 
2.26039 -5.81181 9.33239 
6.96393 13.6868 -2.01216 
6.86582 -0.383568 3.96423 
4.76644 -3.51638 12.0053 
8.82778 -2.82009 13.1031 
-6.53906 -2.82998 8.21823 
6.50348 -0.849789 3.71507 
11.1412 5.86018 5.44468 
-2.29585 -1.83651 0.103108 
-0.352336 -2.28589 10.9302 
10.7323 4.86882 6.85872 
3.63414 15.2675 1.64219 
3.75227 5.75752 11.0619 
7.5483 -3.31787 13.1451 
4.61489 -5.02192 10.9685 
3.46457 10.7052 7.27918 
-1.25381 -1.47755 4.17583 
2.79646 13.5967 4.03107 
-13.1572 -9.90894 -7.5654 
-3.11242 -2.11358 -6.33399 
-4.3293 -5.89813 6.68871 
5.23251 12.4747 -3.60902 
-9.83308 -6.58419 4.31962 
-11.3374 -8.57883 3.24014 
5.7386 3.04887 12.2626 
0.962085 10.4422 -6.63406 
-2.5355 -1.8431 -3.14457 
2.94689 4.77565 12.5815 
-1.68796 -0.690173 -1.14295 
8.50269 7.09816 -6.28228 
-13.6943 -12.6365 -5.21077 
-8.92773 -10.7694 -9.82961 
2.0094 7.84869 -8.13259 
9.80811 6.24029 -6.51729 
7.29798 7.54548 6.65269 
6.85692 6.84403 -7.04827 
-7.35997 -7.9091 -13.4209 
5.72455 -2.80502 8.94256 
8.97621 3.84644 9.12047 
8.24723 3.01842 -7.36323 
7.39235 -0.961244 11.6422 
6.70146 3.95565 -7.02444 
-6.34418 -7.63297 -3.33339 
-2.07547 -2.18589 -2.54112 
-6.73181 -9.16477 -5.49442 
-0.776737 0.82575 -6.98039 
-15.2772 -13.7519 -4.13932 
13.2355 10.1702 -2.40573 
-5.19649 -4.37888 -13.2301 
-10.5201 -5.24772 -15.1627 
-10.5834 -9.11846 -10.1234 
-6.07203 -6.89289 -6.50161 
7.01599 -0.530771 7.61098 
-3.37788 -2.86802 -12.6849 
-7.25338 -8.80626 -7.02824 
1.35645 2.8815 -2.03998 
8.25316 1.84477 4.45514 
1.0524 -2.44184 3.47295 
9.51759 8.47249 4.1898 
6.54944 10.2765 4.53307 
5.1294 -2.46283 0.388415 
0.726168 8.67706 10.3738 
-14.3309 -13.997 -3.75354 
8.12127 6.31445 7.35049 
2.79357 11.8798 5.6172 
3.43287 14.8044 2.25477 
-5.53271 -2.96296 -18.8552 
1.79425 9.63147 9.32326 
6.18108 -1.11983 1.75277 
4.75329 14.9484 -1.92517 
5.767 -1.82279 -0.878223 
-0.92925 -2.94514 10.3004 
10.5128 5.39509 4.92577 
8.68579 1.66201 10.6567 
-3.82474 -4.09622 8.36098 
-3.17356 -4.20644 7.84207 
-11.2195 -8.4755 4.66619 
-10.001 -14.2022 -1.33948 
1.16745 6.30307 12.3499 
1.90102 11.6185 9.19056 
9.22796 3.68309 2.51208 
-3.38314 -2.87623 9.50411 
-2.44344 -2.6979 5.32374 
4.14893 -3.85601 2.58505 
-2.24376 0.954628 12.6231 
0.890762 3.34454 -2.35065 
11.2545 9.15738 -3.74092 
4.83845 3.56814 -5.26726 
8.77511 2.83274 3.37235 
-10.0681 -6.9668 4.90439 
13.047 10.0931 -0.164801 
-9.39337 -8.14217 3.23916 
-2.19435 -2.92061 0.832826 
-1.66451 -0.599938 -1.84773 
9.50865 4.33269 0.960011 
-9.89135 -6.7295 -13.0255 
-2.11089 3.33621 -12.9659 
-9.00265 -5.97904 -14.3962 
-3.77409 5.6983 -12.9306 
2.5286 7.11855 -8.14325 
3.96749 -3.98361 2.80376 
-8.35621 -9.94918 -10.6193 
-3.01468 -3.96097 -0.523564 
-11.9799 -11.8197 -0.335238 
-3.66365 2.03164 14.62 
3.95356 6.9901 9.65752 
6.7505 5.53995 9.09076 
4.71329 9.49693 6.63026 
8.03903 5.43261 -7.65877 
-8.17938 -3.59722 -17.7978 
6.19359 12.9833 -2.86643 
2.6841 12.0961 5.50606 
-13.7075 -13.1228 -3.83821 
2.56148 -5.60476 5.58252 
7.84387 -0.970104 14.7613 
7.17892 6.69831 -7.04135 
0.619744 -2.97316 10.7877 
-10.4729 -5.77391 -15.7066 
-0.0595391 -3.33674 5.21806 
3.85896 -5.64255 4.43688 
-0.889716 6.09256 15.4456 
3.77113 15.275 4.21339 
5.23993 -1.81727 13.3833 
-14.3889 -12.928 -3.92869 
-14.3661 -11.5884 -7.85776 
8.57952 -3.07308 11.7578 
5.38229 9.80832 5.80987 
5.40171 0.0615323 -2.08997 
-4.73422 -5.38916 -1.36938 
11.1437 7.2862 -1.43898 
-10.0619 -6.81609 5.73795 
6.34751 4.50563 -7.30227 
1.06741 3.01664 -1.97259 
8.67885 14.1914 -0.947881 
-6.40991 -6.62072 5.52346 
5.08777 3.20605 12.5795 
-13.2479 -12.031 -6.38484 
7.56458 0.74927 13.2581 
3.63762 12.6324 5.2066 
-5.46392 -7.95122 5.19031 
8.09798 2.76375 -4.09907 
9.53815 -1.62343 14.239 
6.66609 -0.935459 6.50418 
8.87082 5.20775 7.88177 
-1.00896 0.326378 -0.68279 
2.8364 3.31732 -3.58488 
5.86355 7.05826 -7.26999 
-13.8406 -11.4475 -8.15893 
10.6117 1.31356 8.51769 
5.44078 9.3759 -5.75933 
9.07888 2.43437 9.84958 
-12.5997 -11.5615 0.5156 
-2.66497 5.73578 -11.4674 
6.95748 -0.0472807 3.2565 
1.43067 3.68963 -2.72932 
1.61142 10.2582 8.94311 
1.46171 8.96551 10.4718 
1.20599 9.95361 9.66799 
-3.64032 -5.18902 1.1008 
-5.40542 -4.32387 -15.612 
1.0828 12.4915 -6.36805 
3.31462 -6.40773 6.13954 
2.21923 12.3335 5.70346 
13.8719 11.0049 -1.4092 
12.5291 11.6968 -1.25702 
12.1139 11.6795 -0.906099 
-6.45096 -2.47762 -18.9103 
2.07397 12.6487 -4.52388 
9.45805 12.7468 -0.236174 
1.21685 4.70224 -5.57603 
-13.5205 -12.2205 -5.05553 
6.58837 13.3824 1.34561 
-5.05374 -3.9883 -14.0673 
9.23989 4.95698 -7.19004 
0.0410569 7.97049 13.1947 
1.89594 10.624 7.54476 
-10.2324 -4.30643 -17.3181 
-3.00597 -3.12271 -1.42029 
5.14069 1.13499 -3.10677 
-4.76099 -4.84261 -6.31518 
-6.0943 -7.94814 4.7625 
-6.68292 -2.22041 10.0792 
-13.0118 -14.3878 -2.59197 
2.03503 5.72315 12.3258 
3.56504 4.34027 -5.00811 
1.99703 -7.38687 7.66244 
11.3238 7.74433 -2.85982 
-1.7864 0.70182 -10.9768 
-3.2304 -2.31101 -6.3191 
-7.68419 -9.09692 -8.03395 
-4.81198 -5.55889 -9.71596 
3.45932 -6.56856 9.06938 
-9.8661 -6.79687 -12.9148 
0.579112 -4.74367 6.17519 
-3.66611 -1.97637 9.91587 
-0.749352 0.600926 0.357783 
9.6479 2.26402 4.08369 
-12.9092 -8.71052 -12.2989 
-5.41701 -5.74504 -7.15757 
7.80701 2.09718 -2.59889 
-13.2476 -13.6257 -3.69399 
-11.2843 -14.0729 -1.68893 
-15.4388 -13.8327 -4.02776 
4.68969 17.1314 1.08928 
6.41659 -2.17832 13.6555 
12.179 8.35641 2.52495 
-8.23989 -3.21441 -17.7336 
-4.40544 -2.13692 9.54448 
2.67064 -6.44537 9.01602 
8.00074 4.84247 8.91775 
0.890658 5.56208 13.2887 
3.41083 9.22837 7.85947 
6.06824 8.75198 6.31083 
-1.44167 -1.06313 11.419 
-10.2557 -7.24308 6.29264 
6.8993 4.12582 -7.33186 
-5.36588 -3.13092 8.50471 
2.1017 -5.8223 6.08801 
3.70793 -1.17787 13.2575 
5.47448 -2.5998 12.9421 
9.17024 8.15023 4.71147 
-9.99437 -12.1597 -7.545 
-1.02572 9.52705 -9.71749 
3.33772 11.9278 6.70586 
4.41816 6.38803 9.97076 
11.5597 8.88527 -3.88317 
4.91745 11.8942 4.10005 
7.15764 0.273384 3.25583 
-2.79835 -4.10202 7.75238 
-12.2804 -10.9014 -7.65638 
-1.24323 -0.224411 0.777627 
-11.248 -15.3857 -3.56154 
-7.25659 -7.73962 4.37402 
-0.872929 6.30023 14.0967 
2.08664 5.01779 -4.85238 
6.62482 -0.323391 1.33017 
6.43142 4.69714 10.159 
-3.106 0.999251 12.2509 
-3.90884 -5.0139 1.13149 
-4.16065 -5.1157 2.94252 
6.47695 -2.70871 9.7409 
-11.7375 -9.02191 1.79161 
-1.74797 -0.525073 11.7014 
3.8336 1.65571 15.1269 
9.44714 -2.06397 14.4891 
-9.6045 -7.16677 3.93353 
-9.21851 -7.06465 4.19158 
-5.42815 -6.03736 -4.86542 
8.12761 9.56369 4.11414 
-2.30123 -1.98705 1.57884 
-1.04238 5.68149 15.5309 
-0.510628 6.91801 15.5676 
-2.70202 7.22169 -11.3746 
-1.64564 4.93485 -11.6411 
-6.10187 -2.08425 -18.4256 
9.20032 12.3085 0.514007 
2.74366 13.2072 7.40575 
0.625223 9.08857 11.6933 
11.0229 2.16647 7.42547 
-12.5668 -13.8334 -2.07386 
-3.43109 -4.62901 8.23092 
7.76744 -0.823308 11.305 
-7.27548 -7.78656 -12.4112 
11.0275 7.11003 4.41587 
1.24956 12.654 -5.93197 
-1.22737 7.81522 -9.33373 
6.47528 -3.19723 11.9084 
6.6467 -1.42288 9.57659 
-0.234345 3.45763 -12.3563 
3.5606 1.02297 -1.78003 
-7.63986 -8.73272 -12.4754 
-2.61088 1.1099 -14.8026 
6.8215 4.22518 10.1808 
8.87666 -1.86845 14.6722 
3.14859 -2.52564 2.05119 
-5.7275 -6.07088 6.19327 
0.76973 6.08367 13.578 
-9.47858 -6.27175 -13.7705 
5.77714 0.113684 14.9667 
11.1282 10.6521 0.784183 
7.68183 11.752 -3.16798 
-8.61103 -12.2218 0.509903 
4.84576 -3.41197 1.83811 
6.36747 1.35314 -4.20493 
3.64533 10.7539 6.13843 
-1.14928 2.2508 -13.5583 
-2.7375 6.98714 -11.2035 
10.3158 5.24433 3.74392 
7.7839 13.498 -1.89031 
7.11344 2.52691 -5.86079 
8.99809 -2.67285 14.1388 
6.64033 6.90887 7.69381 
-4.63704 -1.92364 -17.7764 
-7.92408 -7.70574 -13.4996 
4.69067 2.84644 -4.39559 
-9.56732 -6.18698 5.99385 
11.8358 7.55246 3.29087 
5.21274 13.0061 -3.14923 
3.08186 7.11915 -7.36727 
12.1198 8.68976 -0.427012 
2.62089 11.9216 -4.92651 
-9.24676 -2.91547 -19.1534 
11.4377 2.9589 6.45578 
-0.983969 -0.105252 -2.73692 
-1.24783 2.65905 -13.1466 
4.23095 4.44024 11.9872 
-7.16159 -9.65088 -3.14102 
9.64849 4.64143 0.529201 
-13.4175 -14.024 -4.22613 
0.184787 -4.71183 6.43391 
3.01513 11.3035 -5.22995 
-4.6369 -3.44062 8.54036 
-4.4681 -5.37009 7.21669 
12.4256 9.63685 -3.11866 
-11.1618 -6.42671 -12.1192 
0.570679 6.73311 13.9843 
3.9406 14.963 1.68936 
-11.5904 -15.4764 -3.11394 
-0.553949 0.554978 12.9606 
-6.23685 -7.80414 -8.79289 
-8.31739 -4.4186 8.15409 
6.99469 -2.40229 10.5877 
6.0765 11.7634 3.36598 
-11.3239 -15.7486 -3.22305 
-10.2709 -14.0909 -1.49558 
7.29663 5.49953 -7.89654 
-4.64215 2.93393 -14.2035 
5.90353 -1.79923 2.43593 
8.53425 0.341556 6.81945 
-1.4253 -4.86643 7.66398 
-11.3181 -12.2745 -0.422111 
0.0990339 -2.05899 11.2318 
0.593611 3.13685 -2.13586 
0.685691 10.2352 -6.89756 
4.27595 0.783853 -2.14327 
-12.738 -12.7785 -4.8903 
4.00556 -5.68898 9.32424 
1.00319 -3.27971 4.32661 
10.4933 7.14432 -5.59882 
-1.68572 8.02666 -9.33269 
12.445 9.07536 -3.5809 
-10.4561 -5.39718 -15.1554 
5.04528 -3.47883 5.72882 
1.9392 -2.41579 11.7175 
5.17091 7.71774 -7.04711 
-2.30135 0.306053 -13.5496 
8.74959 3.8737 -4.53429 
-12.0255 -10.832 0.346817 
3.69527 13.5521 -3.32922 
-1.96786 0.876401 -13.8084 
9.64038 4.21031 3.36806 
3.81762 5.34538 11.3755 
-4.4064 -3.46842 -11.3537 
9.41233 5.68991 7.003 
1.41228 2.75137 -1.9588 
4.70562 -0.521803 14.1053 
6.01812 0.0202785 -2.6574 
6.22224 -2.56814 13.323 
8.00813 2.00745 11.645 
-4.88446 -3.41639 -15.9589 
6.91226 0.0519674 2.01204 
11.7182 9.1367 1.86617 
-6.80311 -1.4669 -18.2335 
8.3825 -0.753956 13.1126 
-8.14143 -7.21329 4.44969 
0.640574 2.61927 -6.74532 
10.0056 0.285989 7.5798 
6.21212 15.6411 -0.548315 
4.06597 5.63814 -6.81393 
-0.497215 0.45308 -4.17553 
1.70881 11.2769 9.49137 
7.96955 1.17732 5.28202 
7.66414 1.72429 -1.55795 
-3.13703 0.320175 -15.5782 
9.61407 5.03128 -2.89241 
0.163206 3.81424 -11.9571 
0.667658 -2.30341 11.28 
3.01064 4.09788 13.2134 
2.64706 -4.5535 4.41826 
9.80388 5.76987 -6.35102 
