ply
format ascii 1.0
comment VCGLIB generated
element vertex 1904
property float x
property float y
property float z
element face 0
property list uchar int vertex_indices
end_header
0.02662 0.06693 0.3427 
-0.1258 0.1724 0.2942 
-0.6612 -0.1643 0.1545 
-0.7164 0.1515 0.2901 
-0.9239 -0.1404 0.1904 
0.07263 0.02703 0.1349 
0.04467 -0.2558 -0.2524 
-0.06029 -0.1997 0.1323 
0.176 -0.3907 0.3764 
0.9865 0.07379 -0.01582 
-0.07063 -0.1305 -0.324 
0.2242 -0.2557 -0.7346 
0.07564 -0.1113 0.4251 
-0.09756 -0.07326 0.3927 
-0.8255 -0.14 0.2615 
-0.0176 -0.05754 -0.2808 
-0.04303 0.05932 0.2588 
-0.01464 -0.2772 -0.5144 
-0.08724 0.006783 0.1518 
-0.4644 0.1397 0.1396 
0.103 -0.04065 0.2999 
0.1641 0.09351 0.03836 
-0.102 -0.0905 0.6338 
0.6731 0.08034 0.04335 
-0.06421 -0.1213 0.4249 
-0.08472 0.04543 0.3218 
-0.03868 -0.2648 -0.3911 
-0.2653 -0.2608 -0.7879 
-0.005454 -0.2764 -0.8704 
0.08847 -0.05996 -0.07887 
0.7109 0.1711 0.2986 
0.01942 -0.2659 -0.7067 
0.06485 0.06292 0.5254 
0.04377 -0.2734 -0.8534 
-0.6042 -0.1224 0.3019 
-0.7105 0.1619 0.2047 
0.8977 0.07321 -0.002235 
-0.355 0.1058 0.1175 
0.03938 -0.1838 0.2853 
0.0523 0.1954 0.2531 
-0.005414 -0.002173 0.1 
-0.7766 0.157 0.188 
-0.1258 -0.2295 -0.6456 
-0.04469 -0.184 -0.5577 
-0.07532 -0.2158 -0.1394 
0.06506 -0.2327 -0.3344 
-0.03372 -0.2452 -0.06627 
-0.8257 -0.1561 0.2042 
0.005683 -0.1511 -0.5482 
-0.08948 -0.009307 0.08692 
-0.5301 -0.1606 0.2224 
-0.08132 -0.1005 -0.198 
-0.01835 -0.02082 -0.06078 
0.08204 -0.3241 0.4088 
0.03159 -0.1452 -0.5062 
-0.344 -0.1432 0.2416 
-0.8038 -0.1632 0.1839 
-0.1813 -0.3008 0.3496 
0.005542 -0.1162 -0.4595 
-0.0049 -0.3742 -0.6626 
-0.05472 -0.08327 -0.2889 
-0.5413 -0.1427 0.2884 
0.09131 -0.156 -0.1434 
0.02233 0.1353 0.2292 
-0.00535 0.08954 0.5458 
-0.6659 -0.1062 0.1905 
-0.08157 0.1081 0.1252 
-0.3825 -0.1938 0.1185 
0.1004 -0.06716 0.3762 
-0.8914 0.09366 0.0383 
-0.3501 -0.1635 0.1807 
0.06055 -0.1564 -0.4297 
0.951 -0.1791 0.134 
-0.4158 -0.1591 0.1865 
0.7382 -0.1959 0.1029 
0.6781 0.08377 0.01029 
0.2844 -0.1544 0.2668 
0.6873 -0.1218 0.3126 
0.09034 -0.1592 0.1363 
0.07156 -0.3419 0.3349 
0.04271 0.1108 0.5167 
0.164 -0.1744 0.2059 
0.8204 -0.1405 0.2071 
-0.5468 0.1306 0.1163 
0.6721 -0.147 0.197 
-0.2187 0.1691 0.2402 
0.17 -0.2208 -0.569 
0.1551 0.07225 0.1504 
0.1013 -0.07909 0.2179 
-0.2029 0.14 0.2538 
0.00257 -0.1281 -0.6681 
0.1641 0.09471 0.08396 
-0.3008 0.1556 0.1842 
0.005337 -0.2764 -0.4275 
-0.09291 -0.1411 0.2839 
-0.7766 0.1525 0.294 
0.9844 0.08611 0.01811 
-0.5958 -0.1547 0.2353 
0.09916 -0.07874 -0.01754 
0.0524 -0.07575 -0.2845 
0.6184 0.1608 0.2009 
0.01561 -0.1791 0.3315 
-0.09541 -0.08878 0.3706 
0.1971 -0.2707 -0.8437 
0.2571 -0.1306 0.3055 
0.1586 0.1206 0.1733 
0.5742 0.1467 0.2722 
-0.7984 0.1467 0.2722 
-0.1027 -0.08955 0.256 
-0.09111 -0.1112 -0.1325 
-0.1555 -0.2455 0.3873 
0.7656 0.1017 0.1042 
-0.08083 -0.196 -0.1883 
-0.4977 0.166 0.2235 
-0.5906 0.1715 0.2616 
-0.4046 -0.1366 0.3167 
0.05349 0.03066 0.06176 
0.3831 0.161 0.201 
0.2082 -0.1556 0.2691 
-0.02278 -0.2494 -0.6901 
0.08204 -0.3405 0.3041 
0.3233 0.1275 0.1086 
-0.6372 -0.1334 0.242 
0.1016 -0.08456 0.1741 
0.002737 -0.2046 -0.8267 
0.07703 -0.2036 -0.5243 
-0.5086 0.1725 0.278 
-0.00324 -0.1499 -0.8759 
0.4813 0.1719 0.2726 
-0.7601 0.1107 0.1347 
0.6452 -0.1517 0.2441 
0.1025 -0.0296 0.371 
0.0978 -0.0325 0.1647 
0.1463 -0.2645 0.2963 
0.0454 0.04688 0.3271 
-0.04812 0.0524 0.3108 
0.5195 0.1457 0.2683 
0.2734 0.1127 0.1426 
0.432 0.1127 0.1426 
0.536 -0.1328 0.2587 
-0.3226 0.148 0.2772 
-0.00324 -0.08978 -0.6681 
-0.0306 0.07483 0.5971 
-0.09741 -0.06818 -0.0118 
-0.1026 -0.09537 0.01555 
-0.09843 -0.2602 -0.7938 
0.1695 -0.2222 -0.6133 
-0.1422 -0.2948 -0.9203 
0.2899 0.08889 0.06865 
-0.5469 0.1727 0.2889 
0.002238 -0.1992 -0.8103 
0.06736 0.04812 0.2156 
-0.5687 0.1719 0.2671 
0.7164 0.1716 0.2671 
-0.005551 -0.09671 0.5294 
-0.1038 -0.09527 0.04829 
0.1768 -0.3414 0.3819 
-0.00324 -0.1445 -0.7173 
0.003237 -0.1281 -0.7173 
0.4593 0.07733 -0.01315 
0.6836 0.1705 0.2509 
-0.0476 0.01865 0.2847 
0.1803 0.1412 0.2503 
-0.0134 -0.02445 -0.1892 
0.07716 -0.2125 -0.1977 
-0.6124 -0.1417 0.2827 
0.1149 0.1698 0.2455 
0.03829 -0.34 0.3433 
3e-06 0.1703 0.2509 
-0.7273 0.1518 0.1714 
-0.9406 0.09471 0.08396 
-0.1641 -0.1501 0.2383 
0.3172 0.172 0.2942 
0.2078 -0.2483 -0.6995 
0.0162 -0.04152 -0.2402 
-0.361 -0.1342 0.278 
0.08022 -0.1946 -0.2307 
-0.1711 -0.1499 0.6508 
-0.008156 0.06275 0.3554 
0.6125 0.148 0.2772 
-0.8035 -0.1228 0.2654 
0.09102 -0.1569 0.08128 
0.1258 -0.1418 0.2623 
-0.9078 0.1127 0.1426 
0.09652 -0.02478 0.1195 
-0.09843 -0.3044 0.3767 
-0.01204 -0.2758 -0.3692 
-0.04667 0.06877 0.3713 
-0.0448 -0.121 0.4586 
-0.9297 0.1127 0.1425 
0.3009 -0.1453 0.2332 
-0.04796 0.07408 0.2944 
-0.1871 0.107 0.1722 
0.7766 0.1567 0.188 
-0.08844 -0.06512 -0.08838 
-0.05488 -0.1999 0.1598 
0.003237 -0.1281 -0.5697 
0.4594 0.1107 0.1347 
-0.886 -0.1302 0.2239 
0.1477 0.1044 0.113 
-0.2149 -0.2882 -0.9199 
-0.1031 -0.02284 0.3442 
-0.4648 0.125 0.1901 
-0.3828 0.1423 0.2554 
0.6612 0.1071 0.2133 
0.9516 0.08157 0.04767 
0.002362 -0.2264 -0.7721 
-0.03949 -0.1417 0.4157 
-0.07275 0.05873 0.3104 
0.1477 0.08571 0.06027 
0.04395 -0.2063 -0.542 
0.1039 -0.2547 -0.7625 
-0.07687 -0.1348 0.3529 
-0.00541 -0.2766 -0.5478 
0.08456 -0.1778 -0.2089 
0.9242 0.08914 0.02689 
0.3883 0.1044 0.113 
-0.09297 -0.2085 -0.547 
-0.1203 -0.2702 -0.8034 
-0.8914 0.0831 0.0526 
-0.2187 0.09744 0.09162 
0.2352 0.1545 0.1801 
-0.01015 -0.16 0.3938 
-0.3391 0.1206 0.1733 
-0.2898 0.08376 0.01029 
-0.01109 0.08649 0.304 
-0.1258 0.1238 0.1008 
-0.2516 0.08157 0.04767 
-0.8586 0.08571 0.06027 
0.9713 0.09009 0.07133 
0.03818 -0.2136 -0.6305 
-0.08864 -0.172 -0.1267 
-0.1038 -0.07879 0.121 
-0.782 0.1133 0.07881 
-0.4369 -0.1554 0.1945 
0.8426 -0.1376 0.2142 
0.02738 0.03077 0.345 
0.175 -0.2871 -0.8838 
-0.07108 -0.2537 -0.7627 
-0.1367 -0.2776 -0.8385 
0.8915 -0.1689 0.1371 
0.06451 -0.1633 0.1988 
-0.8859 0.1098 0.07146 
-0.8368 -0.1257 0.246 
-0.6836 0.1257 0.1045 
-0.415 0.1291 0.1123 
0.06563 0.1693 0.2402 
0.0383 0.008074 0.1005 
-0.432 0.1136 0.07866 
-0.07617 -0.176 0.223 
0.9028 0.07842 0.03568 
-0.2894 0.1388 0.1357 
-0.6289 -0.1706 0.1792 
-0.8093 -0.1645 0.1438 
-0.5523 0.1263 0.1951 
-0.1969 -0.2272 -0.5994 
-0.1039 0.157 0.188 
0.0253 -0.2697 -0.5752 
-0.02192 0.05925 0.4702 
0.04142 -0.2604 -0.433 
-0.0424 -0.2575 -0.4786 
0.9675 0.1035 0.08197 
0.09777 -0.1395 0.09788 
0.04508 -0.2539 -0.4714 
-0.6288 -0.1383 0.2946 
0.3391 -0.171 0.1607 
0.4156 0.1447 0.2645 
-0.7275 -0.1212 0.2842 
-0.5961 0.1355 0.1276 
0.4704 -0.1688 0.1588 
-0.09854 -0.08812 -0.02023 
0.005637 -0.221 0.1576 
-0.1636 -0.331 0.3842 
0.268 -0.1608 0.1884 
-0.04005 0.06874 0.4639 
0.1641 -0.1408 0.262 
0.1039 -0.09526 0.1303 
-0.1026 -0.1877 0.1795 
-0.02188 0.05186 0.4451 
-0.3281 -0.1606 0.2461 
0.1914 -0.2625 -0.7671 
0.6727 -0.1618 0.1625 
0.07782 0.05445 0.3147 
0.1263 -0.1872 0.1689 
0.1531 0.1567 0.1881 
-0.01058 -0.2628 -0.8138 
0.1425 -0.1712 0.1716 
-0.0568 -0.2434 -0.3492 
0.1368 -0.1356 0.2948 
0.1023 -0.1011 0.07014 
-0.2954 0.07719 -0.01349 
0.3391 0.08243 0.00527 
-0.6398 -0.1971 0.1032 
0.443 -0.1306 0.2785 
-0.6646 -0.03473 0.2076 
-0.8586 0.07308 -0.00655 
-0.4812 0.11 0.07139 
-0.7873 -0.1599 0.1962 
-0.432 -0.1424 0.3048 
0.2405 -0.1462 0.3044 
0.09738 -0.07606 0.3599 
0.2461 0.1251 0.1048 
0.5251 -0.1786 0.1358 
0.04865 0.08411 0.3554 
-0.7001 -0.1284 0.2547 
0.2461 0.1678 0.2364 
0.05172 -0.2509 -0.3072 
-0.08009 -0.01397 0.5418 
0.957 0.07743 0.03115 
0.05856 -0.1776 -0.4765 
-0.2297 0.08125 0.001321 
0.01641 -0.3166 0.3394 
-0.8366 -0.1473 0.2334 
-0.2461 -0.2547 -0.7665 
0.1542 -0.2682 0.3653 
0.2898 -0.1696 0.2117 
0.04507 -0.2562 -0.2744 
0.09172 -0.1342 0.1851 
-0.2072 -0.3358 0.405 
0.1805 -0.2645 -0.8092 
0.5031 0.1004 0.05348 
0.01094 -0.3083 0.3631 
-0.7383 0.09336 0.03845 
0.8532 -0.1519 0.1749 
0.07657 0.1472 0.1592 
0.04443 0.04143 0.3708 
-0.596 -0.139 0.2961 
0.3885 0.1682 0.2357 
0.4047 0.1378 0.2387 
-0.00308 -0.3835 -0.6946 
-0.547 -0.154 0.1876 
-0.8422 0.1005 0.0534 
0.2515 0.0903 0.07227 
-0.8039 0.1187 0.08971 
0.5797 0.0849 0.01422 
0.05762 -0.2459 -0.2358 
-0.2566 0.1402 0.1394 
0.3282 -0.18 0.1426 
0.7492 0.09208 0.03454 
0.03974 -0.02133 -0.1441 
-0.3336 0.09744 0.09162 
-0.6398 0.123 0.1824 
0.005478 0.1545 0.1801 
0.8477 0.1415 0.1437 
-0.1641 0.1223 0.09699 
0.1013 -0.03533 0.404 
0.5906 0.1324 0.1202 
-0.8527 0.1275 0.1086 
0.07074 -0.2027 -0.3616 
0.05469 0.1457 0.2683 
-0.5628 0.1333 0.2215 
-0.5085 -0.1859 0.1459 
0.0264 -0.07022 -0.3174 
0.1203 -0.2474 -0.6956 
0.8313 0.08437 0.0565 
-0.2024 -0.3747 0.3154 
-0.1094 -0.2217 -0.6094 
-0.08202 0.1504 0.1674 
0.5359 -0.1838 0.1495 
-0.08624 -0.0348 0.5129 
0.4923 -0.1318 0.2679 
0.3063 0.1193 0.1683 
0.7875 0.1193 0.1683 
-0.09738 -0.1172 -0.09381 
0.9356 0.07933 0.03954 
-0.07529 -0.1027 0.4365 
-0.4486 -0.1785 0.141 
0.1768 -0.2867 0.3545 
0.03303 0.05746 0.09639 
-0.4976 -0.1416 0.2991 
0.2133 -0.2748 -0.8627 
0.03147 -0.08078 0.5454 
-0.448 0.1684 0.2356 
-0.05468 -0.2652 -0.7799 
-0.6453 0.1324 0.1202 
0.2024 -0.2937 -0.9151 
0.4917 -0.156 0.242 
-0.01636 -0.2321 -0.741 
-0.6236 -0.1211 0.3055 
0.7765 -0.1426 0.2665 
0.08204 0.1525 0.294 
-0.06938 -0.001246 0.1011 
-0.08977 -0.08927 -0.1106 
-0.01747 -0.2736 -0.422 
-0.6647 0.08249 0.2237 
0.03533 -0.2662 -0.3072 
-0.09674 -0.1497 -0.0556 
0.6184 0.1388 0.1357 
-0.05676 -0.245 -0.218 
-0.06969 -0.2267 -0.1723 
0.2352 -0.1676 0.174 
-0.004412 0.1318 0.4897 
0.5742 0.08307 0.05253 
0.8481 -0.1458 0.1903 
0.2135 -0.1883 0.1592 
-0.6659 -0.007722 0.2066 
0.1586 -0.1625 0.1911 
-0.01871 0.08302 0.3322 
-0.7055 0.07784 -0.01706 
0.01933 0.09274 0.3837 
0.002783 -0.2589 -0.1191 
-0.6344 -0.1686 0.1479 
-0.779 -0.1724 0.1587 
0.1567 -0.2851 0.3614 
-0.09493 -0.02432 0.4586 
0.03283 0.1203 0.09344 
-0.00324 -0.2101 -0.7775 
0.003237 -0.1226 -0.8103 
-0.6617 0.08877 0.06834 
-0.618 0.124 0.1007 
0.7274 0.07868 -0.01182 
0.7494 -0.1332 0.2375 
-0.09065 -0.166 -0.154 
0.03525 -0.2492 -0.08333 
0.05476 0.05962 0.2996 
0.02228 0.03901 0.3915 
0.06514 -0.008009 0.6015 
-0.1695 -0.3144 0.4113 
-0.4592 -0.1438 0.2949 
-0.1202 -0.1389 0.2949 
-0.07096 -0.1141 -0.2914 
-0.03736 0.02495 0.0752 
-0.4101 0.1044 0.113 
-0.06163 0.06525 0.272 
0.06835 -0.2239 -0.08266 
0.6509 -0.1927 0.1065 
0.4212 -0.1342 0.2656 
0.7931 -0.1926 0.1015 
-0.864 -0.1542 0.2065 
0.3007 -0.1451 0.3029 
0.101 -0.1119 0.02088 
0.07618 -0.08093 -0.1913 
0.03149 -0.2541 -0.1379 
0.1838 -0.3102 0.4434 
0.9188 0.09676 0.04608 
0.06141 -0.2 0.1407 
-0.1916 -0.2812 0.3818 
-0.1855 -0.2588 -0.7495 
-0.01637 0.02688 0.3128 
-0.05311 0.07926 0.4038 
0.2298 -0.1985 0.1294 
-0.9035 0.1396 0.2038 
0.1805 0.1594 0.1966 
0.7383 0.1596 0.1966 
-0.9131 -0.1483 0.1708 
-0.1476 0.08157 0.04767 
0.5961 -0.1813 0.1279 
-0.06511 0.06792 0.4696 
-0.5852 -0.1502 0.1948 
-0.4209 0.1354 0.1279 
0.08696 0.01483 0.1867 
0.7058 -0.1486 0.1926 
-0.05529 -0.02951 0.6223 
-0.1047 -0.05525 0.3396 
0.1367 -0.2576 -0.7767 
0.1859 -0.2301 -0.651 
0.257 0.154 0.1802 
-0.787 0.1684 0.2356 
-0.03382 -0.1375 -0.4835 
0.05401 -0.01902 -0.1098 
-0.3062 -0.1773 0.192 
0.257 0.09487 0.04234 
0.01011 0.1116 0.4764 
-0.07106 -0.2173 -0.3258 
-0.722 -0.1453 0.195 
0.02872 0.08981 0.2567 
-0.08192 0.04006 0.4693 
-0.07529 -0.1827 0.1555 
-0.0583 0.07425 0.4558 
0.5853 -0.1544 0.2397 
-0.1727 -0.1776 0.644 
-0.04758 0.06228 0.1527 
0.8477 0.1007 0.05331 
0.2795 -0.1601 0.2457 
0.8531 -0.1577 0.2059 
-0.02865 0.07757 0.297 
-0.8148 0.09533 0.04214 
0.01014 -0.2779 -0.5424 
0.1363 -0.2464 0.2656 
-0.1915 -0.1978 0.1225 
-0.06133 -0.2373 -0.2671 
0.1023 -0.04603 0.2835 
0.4101 -0.1566 0.1902 
0.4649 0.1668 0.2287 
-0.5852 0.1044 0.06056 
-0.189 -0.3968 0.3432 
-0.04253 -0.2372 -0.03469 
-0.2296 -0.1972 0.1406 
-0.2616 0.07325 -0.001561 
0.175 -0.2576 0.3714 
-0.1299 0.04767 0.193 
0.005475 0.03748 0.4069 
0.8153 0.1275 0.1086 
-0.09621 -0.174 0.1498 
-0.2527 -0.2444 -0.7033 
-0.06188 -0.2397 -0.2343 
-0.01596 -0.07098 0.5717 
0.07236 -0.2155 -0.2684 
0.05331 -0.2465 -0.1762 
0.07044 -0.2184 -0.2963 
0.02479 -0.2466 -0.7355 
0.02778 -0.2224 -0.5767 
-0.7547 0.09533 0.04214 
0.09141 -0.03557 0.01018 
-0.01725 0.04873 0.6402 
0.07323 -0.1495 -0.335 
0.9516 -0.1796 0.1154 
-0.0189 0.05147 0.1136 
-0.678 -0.1454 0.2594 
0.2297 0.07743 0.03115 
0.09997 0.04956 0.3635 
-0.08967 -0.1502 -0.1761 
-0.003112 -0.2534 -0.8321 
0.4488 -0.1678 0.205 
0.799 -0.1666 0.1815 
0.102 -0.05188 0.3436 
0.003237 -0.1281 -0.6845 
0.3171 -0.181 0.1735 
0.0474 0.03997 0.568 
-0.7272 -0.1573 0.2112 
0.3281 0.1526 0.1754 
-0.3335 -0.1536 0.272 
-0.1964 0.1386 0.1357 
0.8536 0.1679 0.2357 
-0.7491 -0.1471 0.2443 
-0.514 -0.1694 0.1951 
0.5469 0.1136 0.07866 
0.08128 -0.09772 -0.1965 
-0.7329 -0.1559 0.1677 
0.2077 -0.1685 0.2223 
0.175 0.1365 0.1318 
-0.4975 -0.1633 0.2169 
0.6563 0.1335 0.1241 
-0.7711 0.1206 0.09332 
0.3446 -0.1288 0.3054 
0.9078 0.1098 0.07146 
-0.8751 -0.1559 0.1568 
0.5305 0.124 0.1007 
-0.069 -0.2248 -0.105 
-0.02187 0.1257 0.1044 
-0.07974 -0.2004 -0.1486 
0.361 -0.1794 0.1424 
0.07882 -0.2087 -0.1595 
-0.5523 0.1044 0.06056 
-0.5687 0.1017 0.1042 
-0.5195 0.07553 0.0207 
-0.7875 0.1162 0.1567 
0.2899 0.07476 0.01534 
-0.2133 0.08914 0.02689 
-0.1859 0.1017 0.1042 
-0.3664 0.1727 0.2889 
-0.4375 0.07743 0.03115 
-0.3555 0.1162 0.1567 
-0.09842 -0.2844 -0.871 
0.1203 -0.3256 0.4063 
-0.05468 0.1172 0.1606 
0.182 0.0742 0.01074 
-0.1144 -0.3318 0.3803 
0.8695 0.09336 0.03845 
0.5742 0.1137 0.1465 
-0.00324 -0.2101 -0.8595 
0.6399 0.1659 0.2235 
-0.5031 0.1171 0.08596 
-0.00324 -0.09525 -0.7884 
0.4762 0.1333 0.2215 
0.439 0.0742 0.01074 
0.2734 0.1172 0.1606 
0.003237 -0.1281 -0.7337 
0.5359 0.09884 0.04958 
-0.8937 -0.1164 0.281 
-0.08508 0.03733 0.4367 
-0.1422 0.1475 0.1589 
0.659 -0.112 0.1674 
-0.6704 0.07356 0.003419 
0.1127 0.1231 0.5943 
0.6727 0.143 0.1476 
-0.7875 0.1371 0.1315 
-0.04862 -0.08476 0.5244 
-0.04034 -0.08301 -0.3245 
-0.08539 -0.01166 0.05878 
0.8367 0.1097 0.07155 
-0.5136 0.1417 0.1432 
-0.02529 0.08075 0.4121 
0.06065 0.07359 0.3076 
-0.2734 0.08157 0.04767 
0.01506 -0.1441 -0.5306 
0.7547 0.08014 -0.002632 
-0.3007 -0.1683 0.2222 
-0.3114 -0.1986 0.1291 
0.1258 -0.2634 -0.804 
0.3392 -0.1317 0.2896 
0.5578 -0.171 0.186 
-0.35 -0.1898 0.15 
-0.02615 -0.2674 -0.2527 
-0.5686 -0.1626 0.2112 
0.5902 -0.1406 0.2929 
-0.0547 -0.2324 -0.6586 
-0.7547 -0.1258 0.2567 
-0.005458 0.1436 0.2605 
0.7219 0.0831 0.0526 
0.05341 -0.06285 -0.02638 
-0.7928 -0.1905 0.1071 
-0.257 -0.1442 0.3161 
0.5579 -0.1822 0.1284 
0.164 -0.3403 0.3038 
-0.9133 0.0904 0.07252 
-0.01546 0.07028 0.2575 
-0.08833 0.02431 0.2614 
-0.4866 -0.1515 0.2605 
0.181 -0.2034 0.1195 
0.2516 0.1494 0.2823 
-0.02717 -0.1706 -0.5822 
0.8313 -0.1318 0.2353 
-0.0874 -0.1042 0.3724 
0.07616 -0.138 -0.3129 
-0.4922 0.1705 0.2509 
0.04025 0.08436 0.4475 
0.6234 -0.1753 0.168 
-0.4375 0.09366 0.0383 
-0.01661 0.002077 -0.09975 
-0.2405 -0.2042 0.1204 
-0.8968 -0.1748 0.1403 
-0.4509 -0.1834 0.1587 
0.06858 0.1997 0.2708 
-0.00828 0.08736 0.48 
0.02526 -0.01899 -0.1562 
0.1313 -0.2451 -0.7223 
-0.3775 -0.1862 0.1324 
-0.08797 -0.1218 -0.2002 
-0.1531 0.1705 0.2509 
0.2406 0.1186 0.08978 
0.1322 0.154 0.5799 
-0.6344 0.08157 0.04767 
-0.8146 0.1724 0.2882 
-0.4266 0.08124 0.001311 
-0.1859 -0.1608 0.2629 
-0.07631 -0.1085 -0.2603 
-0.1641 -0.23 -0.6455 
0.08813 0.0352 0.4239 
-0.08784 0.02521 0.2126 
-0.1477 -0.252 -0.7548 
0.1258 -0.3243 0.3254 
-0.06982 -0.02874 0.5663 
0.1477 -0.2245 -0.5866 
0.3064 -0.1937 0.1373 
-0.1091 -0.2985 -0.9377 
-0.0515 0.04311 0.09244 
-0.2132 -0.1546 0.2836 
-0.09514 -0.1546 -0.08275 
-0.07231 -0.04717 -0.137 
0.928 0.1245 0.1575 
-0.07892 -0.2036 -0.2469 
0.8853 0.1658 0.2231 
0.000195 -0.2049 0.2419 
-0.1695 -0.1973 0.1461 
-3.4e-05 -0.02153 -0.1768 
-0.1641 -0.2774 -0.8702 
-0.04705 -0.2475 -0.1666 
0.4984 -0.2006 0.1019 
0.1036 -0.0625 0.1249 
0.08779 0.1127 0.5895 
0.1956 -0.3034 0.36 
-0.08749 -0.2796 -0.886 
-0.1032 -0.06255 0.09753 
0.0555 0.07968 0.4559 
-0.7111 -0.1844 0.1142 
0.04989 -0.2443 -0.1429 
-0.06885 0.06638 0.3709 
0.01186 -0.1551 0.4012 
0.08055 0.04685 0.2889 
0.09094 -0.1499 -0.1977 
0.01626 -0.09824 0.5285 
0.08351 -0.002356 0.5353 
0.06078 -0.199 -0.5126 
0.05105 0.05303 0.1455 
0.076 -0.05354 -0.1256 
0.06017 -0.1642 -0.4529 
0.005032 0.07005 0.1475 
-0.03284 0.09013 0.3823 
-0.4266 -0.129 0.2945 
-0.01135 -0.2622 -0.1702 
0.026 -0.189 0.2782 
0.0934 -0.0668 0.4256 
-0.3827 -0.1393 0.316 
0.02283 -0.1668 -0.5808 
-0.08099 0.03346 0.5137 
-0.2897 -0.14 0.2617 
0.01016 -0.2798 -0.6572 
-0.0714 -0.05708 -0.1672 
-0.03735 -0.1342 0.4367 
-0.3336 0.07476 0.01534 
0.1017 -0.0623 0.2834 
0.0881 -0.0405 0.4962 
0.1709 0.1281 0.3059 
0.1768 -0.3031 0.3272 
-0.004861 0.1017 0.4351 
0.005002 -0.04454 0.6194 
-0.096 -0.1328 0.1848 
-0.6288 -0.1272 0.2691 
5.6e-05 -0.09287 -0.3991 
0.005498 -0.2178 -0.5911 
0.1891 0.2203 0.5558 
-0.06141 -0.2213 -0.4221 
0.005329 -0.2362 0.06446 
-0.8476 -0.1291 0.3032 
0.04232 0.06879 0.442 
-0.1886 -0.3013 0.4061 
-0.0164 0.164 0.2131 
-0.002118 -0.1752 -0.9001 
-0.01079 0.06329 0.1847 
-0.03773 -0.2465 -0.6849 
0.09312 -0.08748 0.3953 
-0.5795 -0.1389 0.2987 
0.2627 -0.1994 0.1127 
-0.4868 -0.1737 0.1476 
-0.3709 0.07325 -0.001572 
-0.607 -0.1315 0.3146 
-0.9023 0.1517 0.1713 
0.1367 -0.2186 -0.5964 
-0.2133 0.08243 0.005268 
0.08124 0.05031 0.4056 
0.1294 -0.2091 0.3952 
0.4102 -0.1277 0.3023 
-0.01693 -0.1922 -0.6476 
-0.02733 -0.2948 -0.9203 
-0.01595 -0.2807 -0.8534 
0.06446 0.02363 0.03371 
-0.0246 0.08675 0.2438 
-0.1914 -0.3304 0.4256 
-0.1131 -0.2017 0.1876 
0.01717 -0.2437 -0.006059 
-0.07908 -0.2031 -0.03935 
0.02192 0.05675 0.4586 
0.02184 -0.2524 -0.07174 
0.09297 0.01805 0.4506 
0.08608 0.009653 0.5197 
0.2023 -0.2214 -0.6094 
-0.034 -0.2213 -0.651 
0.1039 -0.2929 -0.9111 
0.1564 0.1601 0.5829 
-0.0902 -0.04524 -0.006703 
0.03859 -0.2588 -0.5151 
0.3882 -0.1789 0.1416 
0.7274 0.1515 0.2901 
0.3774 0.1515 0.2901 
0.04686 -0.04778 -0.218 
-0.1641 -0.2902 -0.8983 
0.1476 0.1034 0.3194 
0.02554 -0.2145 0.1609 
-0.07225 -0.02941 -0.07816 
-0.05806 -0.1947 -0.5089 
0.05881 0.005316 0.6166 
-0.6016 0.07553 0.0207 
0.00436 -0.2153 -0.7172 
0.05367 0.05221 0.1774 
-0.09816 -0.09523 -0.03429 
-0.02512 -0.1137 -0.4424 
-0.1258 -0.2356 -0.6728 
-0.07805 -0.1561 -0.323 
0.7929 -0.182 0.1367 
-0.09247 -0.1282 -0.1595 
0.1367 -0.2367 -0.6822 
0.1313 -0.1869 0.1388 
-0.06718 -0.084 -0.2425 
0.8537 -0.1268 0.2518 
0.2898 -0.1855 0.1622 
0.003117 0.08574 0.5816 
-0.07362 -0.01221 0.5725 
-0.0281 -0.2703 -0.5389 
-0.06041 -0.1667 -0.4419 
-0.05477 -0.02376 0.5808 
-0.02319 -0.1004 -0.4072 
-0.1641 -0.2548 -0.7306 
0.6511 0.1357 0.2291 
-0.02427 -0.2488 -0.04877 
-0.0974 -0.0244 0.1249 
-0.000123 -0.06174 -0.3007 
-0.6835 -0.1828 0.1185 
-0.02155 -0.1291 0.4665 
0.1768 -0.3851 0.3545 
0.1914 -0.2606 -0.7937 
0.1641 -0.3291 0.3925 
-0.2649 -0.2596 -0.7723 
-0.06137 -0.1286 -0.3834 
-0.06019 -0.09288 -0.3038 
-0.07685 -0.1948 0.06035 
-0.6619 -0.1389 0.1691 
-0.3691 -0.1556 0.2594 
-0.06562 -0.2483 -0.6995 
0.01174 -0.2748 -0.7423 
0.4322 0.1666 0.2285 
-0.06609 -0.02568 -0.09202 
0.0672 0.1068 0.577 
0.03347 -0.01859 -0.05513 
-0.1025 -0.1114 0.1358 
0.2958 -0.1825 0.1397 
0.08312 -0.1444 -0.2526 
-0.5305 0.08157 0.04767 
-3.1e-05 -0.08266 0.5565 
-0.04992 -0.2148 -0.5212 
0.4325 0.1333 0.2215 
-0.4152 0.1296 0.2074 
-0.6672 0.141 0.2504 
-0.02221 0.05866 0.6289 
0.05578 -0.09355 -0.314 
-0.5415 -0.1801 0.1319 
0.04405 -0.1958 0.2186 
0.01685 -0.1457 0.425 
-0.0411 -0.1522 -0.5084 
-0.6508 -0.1311 0.3136 
0.1763 0.1217 0.2778 
0.02018 -0.1005 -0.4052 
-0.2406 -0.2624 -0.8042 
-0.1742 0.1202 0.3009 
-0.01924 -0.2432 0.008607 
0.1258 0.07743 0.03115 
-0.1018 -0.117 0.004552 
-0.08434 -0.06868 0.4644 
-0.7821 -0.1291 0.2399 
-0.00324 -0.08431 -0.6955 
0.009591 -0.2519 -0.7691 
0.01765 -0.2249 -0.7138 
-0.1013 -0.1065 0.103 
-0.2351 0.1715 0.2616 
-0.7438 0.07301 -0.0119 
0.8203 0.07301 -0.0119 
0.6589 -0.1115 0.1946 
-0.09784 -0.04059 0.09744 
-0.06754 -0.1605 -0.3896 
-0.5195 0.1399 0.2465 
0.2099 -0.2085 0.1029 
-0.00324 -0.1882 -0.783 
0.003237 -0.06243 -0.6408 
-0.5729 0.07424 0.01123 
-0.07585 -0.1773 -0.3563 
-0.0507 -0.1152 -0.394 
0.09844 -0.2662 -0.817 
0.114 -0.1854 0.1781 
0.02159 -0.04767 0.6107 
0.04376 -0.247 -0.5366 
-0.4102 0.1457 0.2683 
-0.01093 -0.206 -0.5366 
0.5086 0.171 0.2562 
0.1274 0.07794 0.006188 
0.004748 -0.07382 -0.04957 
-0.1028 -0.07898 0.04285 
-0.3281 0.09366 0.0383 
0.002238 -0.1773 -0.69 
0.002041 -0.3086 -0.5697 
-0.3664 -0.1867 0.1572 
0.03263 0.07488 0.1817 
0.235 -0.1572 0.2604 
-0.3445 0.1691 0.2402 
-0.4265 -0.164 0.2225 
-0.8531 0.1691 0.2402 
-0.03281 0.1703 0.2509 
0.02735 -0.09285 -0.02884 
-0.1706 -0.2732 0.3761 
-0.1476 -0.2357 -0.6728 
0.06198 0.05026 0.1908 
-0.08473 -0.177 -0.2415 
0.04655 0.04574 0.1168 
0.04915 -0.2948 -0.9499 
-0.1027 -0.0568 0.3709 
0.05577 0.06939 0.2657 
-0.09867 -0.0538 0.4156 
0.2245 -0.1779 0.1519 
0.6891 0.1722 0.2725 
-0.8422 0.171 0.2562 
0.1531 -0.2464 -0.6905 
0.2133 -0.2683 -0.7944 
0.1884 -0.3413 0.4256 
-0.5469 0.08108 0.001338 
8.9e-05 -0.2097 0.2093 
-0.1016 -0.117 -0.01728 
-0.01842 -0.09102 -0.3856 
0.6626 -0.02427 0.1974 
-0.06392 -0.226 -0.3946 
-0.05756 -0.07887 -0.02099 
-0.1143 -0.2001 0.2116 
0.0101 -0.1572 -0.5691 
0.03154 -0.2536 -0.6626 
-0.6125 -0.1239 0.2891 
0.09491 -0.01279 0.2013 
-0.04422 -0.2369 -0.01946 
0.005479 0.09686 0.4946 
0.03283 -0.2764 -0.8704 
-0.02188 -0.2833 -0.9028 
0.09297 -0.2416 -0.7055 
0.1027 -0.007984 0.3928 
0.4648 0.09691 0.04599 
-0.3938 -0.1292 0.3 
0.03288 -0.2693 -0.4658 
0.3774 -0.1279 0.3034 
-0.8204 -0.1571 0.1584 
-0.1531 0.08015 -0.002612 
0.3449 -0.1785 0.1792 
0.7383 0.08599 0.01829 
-0.07687 -0.2057 -0.02409 
-0.03827 0.1724 0.2942 
0.09829 -0.146 -0.0173 
0.06761 0.07088 0.4455 
0.04164 0.105 0.5008 
-0.0541 -0.1882 0.2253 
0.05528 -0.1761 0.2745 
0.08101 -0.1718 -0.3071 
-0.2078 0.1726 0.2835 
-0.08646 -0.1382 0.3214 
-0.1586 -0.2474 -0.6956 
-0.1229 0.04918 0.2357 
0.03661 -0.07386 -0.3065 
0.4489 0.07933 0.03954 
-0.01858 -0.2208 0.1476 
0.9091 0.1562 0.1863 
0.07042 -0.01349 -0.04776 
-0.2132 -0.1709 0.2233 
0.03319 -0.2693 -0.4439 
0.03659 -0.1046 0.5057 
-0.06078 -0.2075 -0.4851 
-0.09786 -0.1444 -0.03377 
-0.4812 0.1219 0.1785 
0.0469 -0.03966 0.599 
-0.1051 -0.0355 0.278 
-0.08202 -0.2248 -0.6235 
-0.1916 -0.2921 0.36 
0.005451 -0.09144 -0.03943 
0.7712 -0.1187 0.3053 
-0.09524 -0.1489 0.08095 
0.2461 0.1633 0.2133 
0.08056 0.03057 0.198 
-0.0678 -0.07342 0.004285 
0.04377 -0.09037 -0.3456 
-0.1095 -0.1472 0.2568 
-0.6947 -0.1322 0.2409 
0.04859 0.08567 0.3705 
0.03767 -0.1898 -0.5854 
0.3614 0.1286 0.2036 
0.3614 0.1081 0.1252 
-0.09841 -0.1545 0.2997 
-3e-06 -0.2751 -0.3017 
0.09237 -0.1062 -0.1376 
0.6672 0.1637 0.2132 
-0.612 0.1058 0.1175 
0.443 0.1219 0.1785 
0.05173 -0.1602 -0.4772 
0.525 0.172 0.2942 
0.07634 0.08058 0.6116 
0.005471 0.09087 0.3225 
0.02736 0.1494 0.2823 
0.08381 -0.007075 0.05901 
-0.05468 0.1537 0.2981 
-0.5295 0.07325 -0.001572 
0.8805 0.1029 0.1081 
-0.0982 0.08025 0.04294 
-0.08989 -0.1283 -0.1867 
0.04337 0.0633 0.3928 
-0.7983 -0.1773 0.1427 
-0.05353 -0.03735 -0.03189 
0.07608 -0.08387 0.4818 
-0.02324 -0.1592 -0.5605 
0.02546 -0.02965 -0.189 
-0.203 -0.2879 0.4022 
-0.1011 -0.1119 0.04828 
0.04412 -0.2327 -0.6633 
0.09389 -0.1415 0.1521 
0.1732 -0.3188 0.3303 
-0.03662 0.05017 0.4364 
0.07743 -0.2126 -0.1431 
-0.5305 0.1029 0.1081 
-0.88 0.1275 0.1997 
0.8536 0.1275 0.1997 
0.07754 -0.1536 0.2183 
0.01913 0.08998 0.3426 
0.06647 -0.03694 0.5665 
0.02838 -0.06112 0.5766 
-0.04379 -0.2007 0.1985 
-0.8859 0.164 0.2131 
0.02181 0.03272 0.3594 
0.1023 -0.1224 0.04828 
0.03099 -0.08131 0.02266 
-0.9702 -0.1704 0.1407 
0.04477 -0.1562 0.3726 
0.01015 0.07925 0.3962 
-0.4101 -0.1756 0.1493 
-0.05362 -0.169 -0.4825 
0.1169 -0.2101 0.208 
0.1863 -0.3873 0.4157 
-0.2093 -0.3569 0.3813 
0.06353 0.07241 0.422 
-0.000108 -0.1904 0.2989 
0.02622 -0.2492 -0.6813 
-0.07158 -0.09652 0.4674 
0.07161 0.008981 0.003959 
-0.793 0.07784 -0.01707 
-0.8367 0.07784 -0.01707 
-0.1046 -0.08688 0.2023 
0.02191 -0.2747 -0.6025 
-0.06463 -0.1545 0.3234 
0.06563 0.1307 0.2118 
0.04323 -0.244 -0.5749 
0.06306 -0.1508 -0.4161 
0.03028 0.06896 0.2924 
-0.1873 -0.1766 0.6524 
0.4379 -0.1491 0.2729 
0.01986 0.0448 0.1285 
-0.04075 -0.2554 -0.1852 
-0.175 0.08307 0.05253 
0.09356 -0.005192 0.1834 
0.09693 -0.002637 0.2835 
0.07667 -0.003298 0.02181 
-0.1157 0.0648 0.3393 
-0.04931 -0.225 -0.6235 
0.09277 -0.1738 0.1543 
-0.5579 -0.1722 0.1458 
-0.04032 0.00197 -0.05264 
-0.05622 -0.0552 0.6112 
0.01531 -0.2756 -0.6244 
0.5743 0.1627 0.209 
-0.09284 -0.1512 0.3139 
0.4867 0.1703 0.2509 
0.08203 -0.158 0.1934 
-0.04329 -0.2699 -0.84 
-0.002139 -0.2953 -0.5602 
-0.08826 -0.1762 -0.07019 
0.06462 -0.1319 -0.362 
-0.02749 0.07201 0.3928 
-0.5578 0.08475 0.01429 
-0.1022 -0.04647 0.3603 
-0.07235 -0.08777 -0.2258 
0.01095 -0.3477 0.3084 
0.01687 -0.3419 0.3349 
-0.5251 -0.1769 0.1394 
-0.9187 0.1445 0.1513 
0.5141 0.1017 0.1042 
0.6728 -0.1883 0.113 
-0.08744 -0.1318 0.2738 
-0.08031 -0.04449 -0.07804 
0.01331 0.009009 -0.08649 
0.02272 -0.2194 -0.6956 
-0.01636 -0.06244 0.5855 
0.03151 -0.05034 -0.2522 
0.3227 0.07642 0.02596 
-0.1907 0.1276 0.2507 
0.08805 0.02949 0.3141 
-0.175 -0.2539 -0.7586 
-0.1385 0.05737 0.186 
-0.08108 -0.1966 -0.06834 
0.008821 -0.2711 -0.2417 
0.7659 -0.1224 0.2815 
0.07558 -0.2003 -0.506 
-0.0649 -0.07791 0.5099 
0.4544 0.1275 0.1997 
-0.01621 0.1023 0.4716 
0.01068 0.05841 0.5031 
0.4062 0.0742 0.01074 
0.2952 -0.1515 0.277 
0.175 0.1661 0.3038 
0.1857 0.1317 0.262 
-0.01822 0.02358 0.2674 
-0.1459 -0.2466 0.2765 
-0.1034 -0.2708 -0.8438 
0.3665 -0.1703 0.1604 
-0.06571 0.04004 0.149 
-0.7928 -0.1675 0.1717 
-0.04217 -0.2103 -0.5733 
0.09888 -0.1205 0.4158 
0.08831 -0.1755 -0.1866 
0.04672 -0.03779 0.5836 
-0.1587 -0.1799 0.1587 
0.4757 -0.1878 0.1423 
-0.08954 -0.02903 0.03714 
0.8026 0.1664 0.2958 
0.1889 -0.3031 0.431 
-0.1914 -0.2854 -0.9133 
0.04617 0.03066 0.3216 
2.9e-05 0.05148 0.2629 
-0.06641 -0.06392 0.535 
-0.1036 -0.03596 0.3112 
0.164 -0.1545 0.2778 
-0.0622 -0.1353 0.3994 
-0.8474 0.1639 0.2779 
0.07241 -0.1661 -0.3567 
0.07113 -0.2072 -0.3755 
0.05476 -0.2466 -0.3315 
0.09845 -0.2395 -0.6579 
0.02735 -0.2702 -0.8034 
-0.4048 -0.1547 0.1987 
0.4949 -0.1833 0.1537 
0.01124 -0.2148 0.1908 
-0.04373 0.06336 0.5631 
-0.04913 -0.1713 -0.5172 
0.04244 0.05784 0.431 
0.05487 -0.2 0.1708 
0.3117 0.1447 0.2645 
-0.08253 -0.02687 -0.0151 
-0.03662 -0.08894 -0.3556 
0.1039 -0.346 0.3161 
0.08148 -0.1614 0.2586 
0.01642 0.01988 0.2684 
-0.08783 -0.1067 0.4184 
0.1311 -0.1497 0.3006 
-0.6044 -0.161 0.1659 
-0.03281 0.04632 0.2644 
0.08358 -0.1889 -0.02824 
-0.04374 -0.08237 0.01075 
0.9625 0.07309 -0.01723 
0.05496 -0.2279 -0.02245 
-0.9021 -0.1849 0.1122 
-0.6619 0.04679 0.2078 
0.07917 -0.1985 -0.2742 
0.06568 -0.01907 0.5916 
0.09816 -0.01885 0.2877 
-0.08303 -0.05257 -0.09327 
0.2954 -0.1365 0.2677 
0.05105 -0.1201 -0.3965 
-0.08203 -0.2163 -0.582 
0.06974 -0.0993 -0.2689 
-0.0972 0.04463 0.3554 
0.04364 -0.1439 -0.4826 
-0.03174 -0.2329 0.04859 
0.01096 0.05279 0.1895 
0.08205 -0.2959 -0.9256 
-0.2078 -0.2275 -0.6354 
0.01092 -0.1653 0.3714 
-0.08152 -0.02547 0.5304 
0.9188 -0.1416 0.1969 
-0.1531 -0.2198 -0.5645 
-0.01414 -0.08332 -0.3599 
-0.1094 0.1436 0.2605 
0.1009 0.1176 0.5841 
-0.02606 -0.09354 0.5326 
-0.1515 -0.2316 0.3869 
-0.1015 -0.008262 0.4035 
-0.03872 0.06334 0.3097 
0.06622 -0.1491 0.3403 
0.09354 -0.1388 -0.1615 
0.2789 0.148 0.2772 
0.2461 -0.1643 0.2336 
0.9354 -0.1442 0.1889 
-0.03878 -0.04906 0.6074 
0.1641 -0.2708 -0.8391 
0.1476 -0.2039 0.1203 
-0.09837 -0.1609 0.2739 
0.6568 -0.1448 0.2692 
-0.1641 0.1567 0.1881 
0.069 0.0965 0.59 
-0.1385 -0.2384 0.2656 
-0.4593 -0.1607 0.2301 
0.8313 0.08376 0.01029 
0.3719 0.1457 0.2683 
0.1258 0.1399 0.2465 
-0.6659 0.01971 0.2115 
0.04922 -0.2568 -0.7398 
0.3227 0.09193 0.03461 
0.1149 0.1556 0.1842 
0.1478 -0.1334 0.3103 
-0.787 0.07842 0.03568 
-0.05468 -0.2929 -0.9111 
0.5036 0.07933 0.03954 
0.03302 -0.2667 -0.4055 
0.1944 -0.3626 0.3654 
-0.5578 0.1423 0.2554 
-0.7109 0.1365 0.2336 
-0.4703 0.1365 0.2336 
-0.07538 -0.21 -0.2803 
0.09452 -0.0987 0.3276 
-0.09139 -0.08579 0.3988 
-0.8094 0.1127 0.1426 
0.6589 -0.05145 0.201 
-0.1794 -0.3029 0.3874 
0.04968 0.107 0.1214 
0.4758 0.1149 0.1515 
-0.5742 0.1149 0.1515 
0.5468 -0.1767 0.1696 
0.4594 0.0858 0.01824 
0.525 -0.1972 0.1132 
-0.8203 0.1017 0.1042 
-0.4375 0.09744 0.09162 
0.8094 0.1017 0.1042 
-0.6125 0.09744 0.09162 
-0.7 0.1546 0.18 
0.0711 0.1561 0.1838 
0.04922 -0.308 0.3631 
0.03725 0.06403 0.5027 
0.9079 -0.1302 0.2348 
-0.9297 0.07553 0.0207 
-0.1586 0.07553 0.0207 
0.08987 -0.1176 -0.1756 
-0.175 0.08092 0.001386 
-0.8531 0.08157 0.04767 
-0.06857 0.04987 0.218 
-0.02368 0.08174 0.223 
0.8148 0.1447 0.1512 
0.7164 0.1498 0.1677 
0.4101 -0.1819 0.1641 
0.09793 -0.02283 0.176 
-0.3609 0.1017 0.1042 
0.07145 -0.1932 -0.3724 
-0.4102 0.1093 0.1297 
-0.2406 0.08376 0.01029 
-0.04257 -0.04224 -0.2013 
-0.279 -0.1319 0.3102 
-0.2734 0.09908 0.09645 
0.8534 -0.1786 0.1213 
0.5907 -0.1336 0.2492 
0.05053 -0.07835 -0.02957 
0.2625 0.1004 0.1004 
0.07155 -0.2377 -0.6494 
-0.782 0.09908 0.09645 
-0.03612 -0.2629 -0.5006 
-0.008746 -0.1485 -0.5407 
-0.2734 -0.1768 0.1971 
0.5583 0.1273 0.1086 
0.01641 0.1004 0.1004 
-0.4812 -0.1768 0.1752 
-0.1106 -0.19 0.1662 
-0.01118 -0.04893 -0.2588 
0.1373 0.068 0.238 
-7.4e-05 -0.2556 -0.08823 
-0.08749 -0.2406 -0.6632 
0.788 0.07842 0.03568 
0.8149 0.1206 0.1733 
-0.9552 -0.1628 0.1678 
-0.9319 -0.1353 0.2112 
0.6835 -0.1464 0.2606 
0.1883 -0.2919 0.3216 
-0.2652 -0.2688 -0.8314 
-0.09219 -0.1256 0.2436 
0.4046 -0.1738 0.1893 
-0.2133 -0.267 -0.8262 
0.9297 0.0831 0.0526 
0.2903 0.08034 0.04335 
-0.8148 0.0831 0.0526 
0.6016 0.1457 0.2683 
-0.07405 -0.1775 -0.3726 
0.5087 -0.1401 0.3032 
-0.135 -0.2082 0.3825 
-0.5851 0.1206 0.1733 
-0.2406 0.1127 0.1424 
0.7 0.0904 0.07252 
-0.5031 0.1149 0.1515 
-0.09485 -0.02379 0.4742 
-0.2019 -0.2482 -0.736 
0.005918 0.1628 0.2086 
0.04418 0.08271 0.2599 
-0.06074 -0.2381 -0.1662 
0.7055 -0.1327 0.2422 
-0.4812 0.08571 0.06027 
0.09643 -0.08914 0.3544 
0.2625 -0.1482 0.2939 
0.005475 0.123 0.1824 
-0.1017 -0.1331 0.4131 
0.9078 0.1206 0.1733 
-0.5798 -0.142 0.2188 
-0.1504 -0.2644 0.2768 
-0.01094 -0.2774 -0.6885 
-0.5852 0.07743 0.03115 
0.176 0.132 0.2218 
0.1859 0.07743 0.03115 
-0.09238 0.02323 0.3326 
-0.5085 -0.1977 0.1134 
0.2188 -0.2843 -0.9081 
-0.0347 -0.2488 -0.6239 
-0.01036 -0.2764 -0.4701 
0.06621 0.06366 0.5008 
0.5852 -0.1397 0.2278 
-0.6673 -0.1254 0.2731 
0.07657 -0.2433 -0.676 
-0.8034 0.08034 0.04335 
-0.7712 -0.1714 0.1338 
0.09996 -0.1228 0.06472 
-0.2298 -0.1452 0.2496 
0.3171 -0.1878 0.1533 
0.3665 -0.1505 0.2113 
0.7251 0.07375 -0.02489 
0.2137 -0.2596 -0.7533 
-0.2037 -0.363 0.4258 
-0.6671 -0.1892 0.1219 
-0.02516 0.03018 0.08009 
0.2078 -0.2321 -0.6228 
0.08814 -0.1002 0.3768 
0.2466 -0.2481 -0.7362 
0.804 0.07629 -0.02709 
0.1757 -0.2645 0.403 
0.2406 0.1127 0.1423 
-0.2569 -0.1541 0.2148 
-0.09892 -0.01196 0.2096 
-0.05493 0.06364 0.2393 
-0.2026 -0.4027 0.3804 
0.3828 0.1415 0.1437 
-0.07855 -0.0699 0.6216 
0.6344 0.0904 0.03078 
0.263 0.1081 0.1252 
0.4594 0.1516 0.1713 
-0.08208 -0.08931 -0.1838 
0.0453 0.1068 0.08357 
0.6015 -0.1527 0.2444 
-0.007992 -0.1556 0.407 
-0.5064 0.07383 0.007119 
-0.04508 -0.2085 0.1463 
0.6836 0.1307 0.2118 
0.002461 -0.2807 -0.6981 
-0.1916 -0.2921 0.3327 
0.443 -0.1708 0.1552 
-0.672 -0.1327 0.2416 
0.864 -0.1708 0.164 
-0.1857 -0.1483 0.6558 
0.246 -0.1836 0.1709 
0.09499 -0.09038 0.3163 
-0.8477 -0.1406 0.1964 
0.8591 0.1058 0.1175 
0.178 -0.3677 0.4331 
0.09513 0.02386 0.3765 
-0.06583 -0.1675 -0.4162 
-0.06606 -0.1394 0.377 
-0.2569 -0.195 0.1441 
0.07234 -0.21 -0.3123 
-0.3169 -0.1971 0.1163 
-0.08734 0.01707 0.1825 
-0.02109 -0.04322 -0.2408 
2.5e-05 -0.2068 -0.6968 
-0.1916 -0.1497 0.2376 
-0.0359 0.07985 0.5324 
0.02307 0.0674 0.1744 
0.5471 -0.1499 0.1996 
0.01316 -0.07326 -0.3378 
0.9241 -0.1669 0.1713 
2e-06 -0.04424 -0.2476 
0.01688 -0.1382 0.4431 
0.08739 -0.03676 -0.008051 
-0.01337 -0.2488 -0.02718 
0.07097 -0.03023 -0.08779 
-0.1916 -0.3248 0.3108 
-0.7378 0.1291 0.1123 
0.7602 0.1389 0.2427 
-0.0989 -0.1032 0.2741 
-0.09125 0.027 0.355 
0.08011 -0.1068 -0.2358 
-0.005631 -0.1745 0.3444 
-0.2767 0.07356 0.003419 
-0.1477 -0.1856 0.1483 
-0.07429 0.02233 0.114 
-0.009987 -0.07215 -0.05139 
-0.0843 -0.07447 -0.1372 
0.09272 0.03693 0.3545 
5.8e-05 -0.2392 0.04765 
-0.09296 -0.2491 -0.7033 
-0.5439 -0.1494 0.2004 
0.02736 0.1321 0.1203 
-0.6398 0.1223 0.09699 
0.8914 0.1308 0.2119 
0.006528 -0.2633 -0.7617 
0.87 0.08034 0.04335 
0.08976 -0.1432 0.1957 
0.04804 -0.03495 -0.04121 
0.5524 -0.1963 0.1046 
0.5579 -0.162 0.168 
0.175 -0.2394 -0.695 
-0.00324 -0.139 -0.8212 
-0.07569 0.01411 0.07064 
0.0996 -0.1376 0.01543 
0.4703 -0.1367 0.3141 
-0.05468 -0.34 0.3042 
0.174 -0.3372 0.369 
0.04291 0.05193 0.1986 
0.06381 0.03409 0.1154 
0.02226 0.06934 0.2232 
0.7109 -0.1328 0.3115 
0.002977 -0.1281 -0.6299 
0.08713 0.005054 0.1461 
-0.0704 -0.1002 -0.2738 
-0.957 0.08047 -0.002654 
0.003237 -0.1554 -0.679 
0.003237 -0.1992 -0.8486 
-0.1421 -0.1737 0.2218 
0.08799 -0.1361 0.2448 
0.07522 -0.2025 0.004695 
0.8713 -0.1203 0.3063 
-0.1695 -0.251 -0.7125 
0.5852 0.1107 0.1347 
-0.1805 -0.2729 -0.8164 
0.005435 -0.1081 -0.4431 
0.003237 -0.0679 -0.8212 
0.003237 -0.1827 -0.7611 
0.487 -0.172 0.1511 
0.06564 -0.2625 -0.7671 
-0.006141 -0.1656 -0.5871 
0.3391 0.1537 0.2981 
0.06999 0.05658 0.2954 
-0.07152 -0.1003 0.4527 
-0.05139 0.07269 0.3144 
-0.02572 -0.2688 -0.5825 
-0.05467 -0.2764 -0.8704 
0.2078 0.1504 0.1674 
0.08165 -0.02291 -0.02107 
0.07731 -0.1958 -0.3206 
-0.0255 -0.254 -0.1113 
0.3773 -0.1982 0.1202 
0.139 0.1755 0.5657 
-0.0337 0.06773 0.3317 
0.02906 -0.0937 0.5306 
0.01142 0.07017 0.2087 
0.09178 -0.02158 0.08274 
-0.05409 -0.1321 -0.4121 
-0.08331 -0.04118 -0.06089 
-0.003482 -0.3207 -0.5957 
0.6567 0.07842 0.03568 
0.06882 -0.1989 -0.4164 
-0.1669 -0.2809 0.3067 
-0.08959 -0.0465 0.4699 
0.03829 -0.2636 -0.7722 
-0.07632 -0.116 0.4028 
-0.924 -0.1843 0.1118 
0.9024 0.09208 0.03454 
0.3227 0.1017 0.1042 
-0.08727 -0.2044 -0.5279 
0.443 0.1615 0.2052 
0.03327 0.1081 0.1252 
-0.07975 0.0213 0.1464 
-0.2242 0.1469 0.1592 
0.7164 0.1659 0.2235 
-0.328 -0.169 0.2169 
-0.2953 0.1044 0.113 
0.6125 0.1044 0.113 
0.08605 -0.07383 -0.1265 
-0.09283 -0.07534 0.421 
-0.09843 -0.3378 0.3066 
0.09844 0.1263 0.1951 
0.9511 -0.1679 0.166 
0.7606 0.1307 0.116 
-0.9333 0.07322 -0.0209 
0.263 0.1684 0.2356 
0.1013 -0.04659 0.1085 
-0.2297 -0.2385 -0.6899 
-0.7055 0.09471 0.08396 
0.1347 0.1416 0.5851 
-0.6836 0.1531 0.1752 
0.7439 -0.176 0.1575 
-0.1977 0.124 0.1991 
-0.1367 -0.2871 -0.8838 
-0.00324 -0.06243 -0.7009 
-0.448 0.1388 0.1357 
0.957 0.09534 0.04216 
0.7519 -0.1888 0.1208 
0.3774 0.12 0.09359 
0.3721 0.1628 0.2089 
-0.6015 -0.1711 0.1805 
-0.1877 0.1324 0.2903 
-0.1994 -0.3092 0.4426 
0.1039 0.1017 0.1042 
-0.1258 0.1355 0.1276 
0.5524 0.1515 0.2901 
-0.2351 0.1436 0.2605 
-0.875 0.09692 0.04601 
-0.1422 -0.2491 -0.7033 
-0.08925 -0.02367 0.05359 
-0.05931 -0.1079 -0.3353 
0.2296 -0.1632 0.2388 
-0.1805 -0.2442 -0.68 
-0.05671 0.06018 0.5783 
0.525 0.09208 0.03454 
0.5906 0.1475 0.1589 
-0.8966 0.1609 0.201 
-0.3172 0.09056 0.03072 
0.3445 0.1137 0.1465 
0.08751 -0.2702 -0.8034 
0.0114 -0.08418 0.002245 
-0.02127 0.07121 0.5334 
-0.5081 0.1081 0.1252 
0.1891 -0.4008 0.3763 
0.2352 0.08914 0.02689 
0.093 -0.2455 -0.7223 
0.1312 -0.1751 0.2062 
0.4867 0.1004 0.05347 
-0.9133 0.08611 0.01811 
0.9134 -0.1727 0.1299 
-0.03473 -0.06349 -0.04246 
0.003469 -0.02125 -0.0613 
0.07084 -0.1988 0.06999 
-0.8805 0.1206 0.09332 
-0.1039 0.1097 0.07155 
-0.3062 0.164 0.2131 
0.1476 -0.1661 0.2355 
0.2847 -0.1816 0.1742 
-0.1969 -0.2395 -0.6579 
-0.1053 -0.08404 0.1358 
0.197 -0.2031 0.1191 
-0.005465 -0.2197 -0.6016 
-0.6453 0.1117 0.0751 
0.175 0.09744 0.09162 
-0.0328 0.1515 0.2901 
-0.8642 -0.1729 0.1246 
0.4265 -0.1976 0.1188 
0.03505 -0.04662 -0.04603 
-0.5523 0.1172 0.1606 
-0.2734 0.1525 0.294 
-0.443 0.1026 0.05694 
-0.8471 -0.1483 0.1765 
0.5268 0.07361 -0.01387 
-0.06793 -0.2272 -0.2233 
0.5195 0.08569 0.0602 
-0.1044 -0.1503 0.2446 
-0.08936 -0.1754 0.009764 
0.7551 0.107 0.1214 
0.875 0.1457 0.1551 
-0.0816 -0.009573 0.03132 
-0.07761 -0.1911 -0.3218 
0.1533 -0.1676 0.179 
0.5852 -0.1776 0.1351 
-0.1586 0.123 0.1824 
0.08249 0.1081 0.1252 
-0.03237 -0.2132 -0.6389 
-0.0306 0.1029 0.4462 
0.002569 -0.06795 -0.6681 
-0.05997 0.1354 0.1279 
0.5524 0.1371 0.1315 
0.1918 0.1286 0.1125 
0.4376 -0.1534 0.1976 
0.9849 0.07321 -0.00237 
0.2078 -0.2798 -0.8489 
-0.3828 0.1117 0.1387 
0.3336 0.1162 0.1567 
-0.2078 0.09533 0.04214 
-0.02736 -0.1866 -0.6206 
-0.088 0.008276 0.5073 
0.0875 -0.3267 0.3222 
0.05828 0.06111 0.5535 
0.03291 0.04557 0.06034 
-0.1148 -0.236 -0.6411 
0.6343 -0.1777 0.1602 
0.6075 0.1623 0.2088 
0.6179 -0.1649 0.201 
0.6398 0.1505 0.1676 
0.0825 0.1417 0.1432 
-0.0597 -0.2588 -0.7495 
0.427 0.1291 0.1123 
-0.6631 0.04762 0.107 
0.4817 0.1291 0.1123 
-0.1747 -0.1878 0.173 
-0.1969 -0.2751 -0.8268 
-0.001049 -0.3487 -0.6669 
0.2588 -0.2071 0.1023 
0.0845 -0.09628 0.4153 
0.175 -0.2425 -0.6722 
-0.1367 -0.2472 -0.7274 
-0.1428 -0.2426 0.2535 
0.7109 0.141 0.2504 
0.7606 0.1296 0.2074 
-0.06058 -0.03875 -0.156 
-0.1477 -0.2219 -0.6093 
0.5688 0.08729 0.02211 
0.09373 0.02776 0.3909 
-0.9023 0.09705 0.04591 
0.06555 -0.2208 -0.05 
-0.004804 0.003586 -0.1071 
-0.01457 -0.1264 -0.4806 
0.09423 -0.1546 -0.1156 
0.01901 0.09021 0.4702 
-0.04237 -0.2429 -0.08163 
0.08395 0.02578 0.2614 
0.2516 0.158 0.1919 
0.0422 0.08088 0.344 
0.1422 -0.1405 0.2673 
0.007947 0.0747 0.173 
0.2133 0.0871 0.06396 
0.9238 0.1462 0.1591 
-0.001814 0.02516 0.3321 
-0.8041 -0.1163 0.3008 
0.9133 0.1018 0.05731 
0.04722 -0.1724 -0.5256 
0.04355 0.05421 0.3783 
-0.5081 0.1333 0.2215 
0.6344 0.1307 0.2118 
0.7492 0.1517 0.1713 
-0.05023 -0.1607 0.3496 
0.4326 -0.1438 0.295 
-0.361 -0.1602 0.1879 
-0.04374 -0.2636 -0.7722 
0.8098 0.1628 0.2086 
0.02012 -0.09491 -0.3889 
-0.8318 -0.1661 0.1395 
-0.03015 -0.2684 -0.4457 
0.05469 -0.2871 -0.8838 
0.05005 -0.199 -0.5316 
-0.1586 -0.2937 -0.9151 
-0.4264 -0.2009 0.1124 
0.07657 0.1135 0.07875 
0.1531 0.1252 0.1047 
-0.1258 0.0952 0.04226 
0.3454 0.07321 -0.002238 
-0.08151 -0.1915 -0.008083 
0.4862 -0.1779 0.1704 
0.07657 -0.2863 -0.88 
0.2911 0.07547 -0.01334 
-0.5439 -0.1395 0.3012 
0.08807 -0.1053 0.3603 
-0.01293 -0.2585 -0.128 
-0.2074 -0.2425 -0.6723 
-0.04831 -0.1282 -0.4322 
0.1312 0.09887 0.04963 
-0.2078 -0.2785 -0.8808 
-0.01737 0.0956 0.3968 
0.3992 0.1149 0.1515 
-0.03227 0.008675 -0.0733 
0.06206 0.04321 0.1398 
-0.04504 -0.1728 -0.536 
-0.03482 -0.04429 -0.221 
0.1258 0.0904 0.07252 
0.1752 -0.3803 0.4198 
0.6312 0.07375 0.005978 
-0.6946 -0.1887 0.1081 
0.04368 0.06953 0.2773 
-0.5742 0.1099 0.07147 
0.01643 -0.2242 -0.6182 
0.1367 -0.2214 -0.6095 
0.04577 -0.1043 -0.3795 
0.4708 0.1619 0.2047 
-0.5797 0.1206 0.09332 
0.7601 -0.1814 0.1408 
-0.01594 -0.24 -0.7518 
-0.629 -0.1863 0.1165 
0.06599 -0.1883 0.1635 
0.1258 0.08729 0.0221 
0.07434 0.03177 0.5466 
0.2461 -0.2798 -0.8489 
-0.3609 0.1324 0.1202 
0.3172 0.1429 0.1475 
0.7602 0.1433 0.1474 
-0.1203 -0.2652 -0.8173 
0.04754 0.08254 0.4856 
-0.6891 0.117 0.08603 
0.0875 -0.1651 0.09172 
0.08564 0.1265 0.5752 
-0.3719 0.1515 0.2901 
0.04052 -0.262 -0.4876 
-0.2029 -0.2849 0.4272 
-0.7328 0.1433 0.1474 
-0.05907 0.04134 0.1309 
0.2734 -0.17 0.2118 
-0.1586 -0.2461 -0.7221 
-0.8367 0.1063 0.06408 
0.9297 0.07868 -0.01182 
-0.001942 -0.03196 -0.7119 
-0.6103 0.07383 0.007119 
-0.01077 -0.2755 -0.3508 
-0.1331 -0.1916 0.3996 
-0.03892 -0.03396 -0.04599 
-0.05655 -0.2355 -0.4601 
-0.08032 -0.1693 0.1666 
0.03988 -0.1134 0.4872 
0.02234 -0.3026 0.3987 
-0.04505 -0.2543 -0.2072 
-0.04709 -0.009182 -0.0946 
-0.06406 0.02466 0.05371 
0.804 -0.1629 0.1531 
0.5524 -0.1675 0.1572 
0.2132 -0.165 0.2339 
-0.5851 -0.1688 0.1895 
0.01147 -0.238 0.03775 
0.09743 -0.1226 0.1413 
-0.5414 0.1525 0.294 
0.1094 0.1467 0.2722 
0.8094 0.1436 0.2605 
-0.005457 -0.2003 -0.5094 
0.09844 -0.05778 0.4036 
0.01245 -0.2745 -0.3835 
0.03282 0.1525 0.294 
-0.02736 -0.2006 -0.5093 
0.8203 0.141 0.2504 
0.1179 0.1383 0.5777 
-0.01027 -0.2379 -0.7653 
-0.6561 -0.1699 0.1436 
-0.4595 -0.1709 0.1553 
0.05994 0.06836 0.2801 
0.005757 -0.1335 -0.5185 
0.04376 -0.2759 -0.8306 
0.03977 -0.1376 0.4327 
-0.5249 -0.173 0.1824 
0.7711 0.09187 0.07632 
0.08707 -0.02319 0.01203 
-0.6289 0.09187 0.07632 
-0.678 -0.1746 0.1622 
-0.4047 -0.1971 0.1111 
0.0106 -0.0105 -0.1476 
0.04968 -0.2824 -0.8611 
-0.005654 -0.183 -0.6509 
0.2735 0.07527 -0.0104 
-0.3992 0.09471 0.08396 
-0.02812 -0.2671 -0.6224 
0.8641 -0.1676 0.141 
-0.2625 0.1457 0.1551 
-0.5468 -0.1684 0.1948 
0.000458 -0.215 -0.5417 
-0.8666 -0.1331 0.2167 
-0.06651 -0.1923 -0.4365 
-0.09843 -0.3264 0.322 
0.6344 0.1162 0.1567 
-0.08454 0.03487 0.4965 
-0.5579 -0.151 0.1951 
-0.003009 -0.3863 -0.6675 
0.1032 -0.1891 0.1715 
-0.8749 -0.1681 0.1618 
0.02885 -0.1859 -0.6096 
-0.06946 -0.2263 -0.145 
0.07174 -0.1949 0.108 
-0.1769 -0.1379 0.3167 
0.123 -0.2284 0.2266 
0.08418 -0.1343 0.2673 
-0.03256 0.06869 0.5082 
0.711 0.1429 0.1475 
-0.02146 -0.2697 -0.6657 
0.8641 -0.1458 0.1898 
0.04526 -0.03409 -0.1719 
-0.6647 0.06863 0.2203 
0.04376 -0.2718 -0.8112 
0.01558 -0.1177 0.4932 
-0.03281 -0.253 -0.7588 
0.175 -0.255 -0.7664 
0.2297 0.08474 0.01427 
-0.02074 -0.2741 -0.6371 
0.0933 0.08183 0.0479 
-0.5687 0.148 0.2772 
0.04887 0.07129 0.3129 
-0.04277 0.08517 0.3983 
0.3007 -0.2028 0.1132 
-0.03994 -0.2614 -0.4148 
-0.03013 0.09489 0.458 
0.08693 -0.009652 0.07691 
0.1045 -0.02925 0.3342 
-0.5577 -0.1656 0.2025 
-0.1531 -0.3368 0.3577 
0.01717 -0.05227 -0.2661 
-0.08202 -0.3184 0.3358 
-0.3063 0.07933 -0.006553 
-0.02187 -0.3353 0.3097 
-0.1258 -0.2227 -0.6132 
-0.0328 0.05301 0.5653 
0.5091 -0.1753 0.1434 
-0.0755 -0.05869 0.5135 
0.07679 -0.01306 0.5503 
0.01097 -0.24 -0.6949 
2.2e-05 -0.169 -0.5981 
0.5633 0.07553 0.0207 
0.04759 -0.00296 -0.07381 
0.04381 -0.1562 -0.5008 
0.0315 -0.05579 -0.2687 
-0.06384 -0.1865 0.1945 
0.722 -0.1937 0.1098 
0.1757 -0.2601 0.3444 
0.4868 -0.1911 0.1157 
0.08485 -0.08547 0.4371 
0.02068 -0.01861 -0.06039 
-0.1999 -0.3344 0.286 
-0.2078 -0.2661 -0.7839 
0.5961 0.07553 0.0207 
-0.02244 0.0559 0.414 
-0.005456 -0.2681 -0.8315 
0.08317 -0.03797 -0.05706 
0.1846 0.1317 0.2779 
0.02655 -0.2478 -0.04474 
-0.08851 -0.1307 0.2904 
0.2079 -0.1805 0.1483 
-0.2035 -0.3616 0.2966 
-0.004385 -0.2806 -0.7426 
-0.08206 -0.2003 -0.1176 
-0.8421 -0.1599 0.1904 
0.3609 0.1537 0.2981 
-0.7436 -0.1464 0.1911 
0.05865 -0.2306 -0.07726 
-0.006504 0.01788 0.2941 
-0.02385 -0.2152 0.175 
0.09205 -0.07256 -0.06072 
0.2193 -0.1936 0.1236 
0.9156 0.07375 0.005978 
0.08181 -0.1672 0.1742 
-0.0985 -0.0324 0.1355 
0.05238 -0.1809 0.2566 
0.03039 0.08678 0.3806 
-0.1038 -0.1785 0.2101 
0.04272 -0.1292 -0.4458 
0.005774 -0.1984 0.2586 
0.03282 0.02502 0.3178 
0.194 0.1427 0.2781 
-0.1637 -0.1561 0.2189 
0.1898 0.1423 0.2988 
0.08999 -0.107 0.3163 
-0.1694 -0.182 0.1915 
-0.1025 -0.08427 0.09195 
-0.3214 0.07424 0.01123 
0.9558 0.1137 0.1031 
-0.004708 -0.3359 -0.597 
0.05521 0.07042 0.3541 
0.1259 -0.1464 0.3137 
-0.288 -0.2084 0.1026 
-0.1421 -0.2082 0.1187 
0.09563 -0.09035 0.2836 
-0.8805 0.07476 0.01534 
-0.002847 -0.07288 0.5679 
-0.04921 -0.2652 -0.8173 
-0.1367 -0.2385 -0.6859 
0.09719 -0.07858 0.3818 
-0.0111 0.1114 0.4294 
-0.388 -0.1606 0.2388 
-0.0518 0.07615 0.5186 
0.05199 -0.2288 0.009784 
0.257 -0.2555 -0.7717 
0.0758 0.04523 0.2739 
0.05225 -0.2198 0.04868 
-0.2955 -0.17 0.1705 
-0.02187 0.04059 0.3817 
-0.02187 -0.2995 -0.9424 
-0.03971 -0.254 -0.1583 
0.6627 -0.08432 0.1959 
-0.054 -0.05893 -0.2232 
-0.08181 -0.06075 0.4878 
0.06709 -0.2213 -0.3399 
0.8043 -0.1489 0.1858 
0.03836 -0.181 -0.576 
-0.1532 0.0738 0.1692 
0.2023 0.1548 0.3011 
0.93 -0.1885 0.1022 
0.0985 -0.01559 0.274 
-0.2242 -0.2805 -0.89 
-0.03769 0.05317 0.6232 
0.08164 -0.06203 0.4893 
-0.6343 0.1461 0.1552 
0.09844 -0.2206 -0.6056 
-0.7655 -0.1736 0.1563 
0.09246 -0.1557 -0.1596 
-0.5851 -0.1974 0.1076 
0.003237 -0.1445 -0.7994 
-0.00324 -0.221 -0.7994 
-6.1e-05 -0.03606 -0.2225 
-0.1148 0.09056 0.03072 
-0.5961 0.07773 -0.0161 
0.05681 -0.03862 -0.1662 
-0.2439 0.07356 0.003419 
-0.08799 -0.1742 -0.1954 
0.07179 -0.01123 0.5809 
0.1148 -0.236 -0.6411 
0.08623 -0.1831 -0.04996 
-0.02533 0.04529 0.06432 
0.01098 0.05663 0.4521 
-0.7601 -0.1915 0.1075 
0.7875 0.09471 0.08396 
-0.02522 -0.2634 -0.6844 
0.003237 -0.08431 -0.7884 
0.1157 -0.1765 0.1611 
0.09412 -0.1283 0.1741 
-0.08506 -0.08511 -0.1537 
-0.01955 0.07824 0.2345 
-0.005463 -0.2912 -0.9034 
0.003237 -0.05151 -0.8103 
-0.0923 0.02358 0.289 
-0.956 0.1122 0.1034 
-0.0941 0.008664 0.4311 
-0.2187 -0.2625 -0.7671 
-0.131 -0.1926 0.1633 
0.0113 -0.002916 -0.06383 
-0.3446 -0.1466 0.2294 
-0.5194 -0.1928 0.1257 
-0.01201 0.05679 0.2213 
0.01982 -0.05725 -0.2792 
-0.09147 -0.1552 0.1467 
-0.07618 -0.1021 -0.2469 
-0.04629 0.08149 0.5077 
-0.06912 -0.1642 0.2831 
-0.03818 0.03331 0.3497 
0.2188 -0.2498 -0.7444 
-0.4267 0.07866 -0.01107 
-0.8915 -0.1782 0.1138 
0.09553 0.00905 0.4421 
-0.03317 0.114 0.4923 
0.1768 -0.2921 0.3874 
0.6617 -0.1801 0.1512 
-0.1001 -0.0956 0.2398 
-0.1531 -0.3243 0.3254 
0.03443 -0.1078 -0.4058 
0.05144 -0.2062 0.1361 
0.2407 -0.1798 0.148 
-0.9023 0.123 0.1824 
0.04055 -0.2055 0.1899 
0.02289 -0.2385 0.02142 
0.5418 -0.1925 0.1249 
0.0267 -0.2706 -0.4767 
-0.003178 -0.1184 -0.5329 
-0.07793 -0.174 0.1865 
0.05925 0.07367 0.4663 
-0.4867 0.1371 0.1315 
0.1313 -0.2244 -0.6237 
0.06552 -0.08014 -0.2434 
-0.07221 -0.01143 -0.03317 
0.06165 -0.05997 -0.2048 
0.02078 -0.01183 0.6415 
-0.4812 -0.1925 0.1301 
0.04909 -0.09644 0.5035 
0.1586 -0.2866 -0.9172 
-0.05399 -0.2469 -0.3638 
-0.6599 0.07356 -0.02064 
-0.02802 -0.2666 -0.2907 
0.06255 -0.1161 -0.3405 
0.04698 0.08175 0.5013 
-0.08481 -0.1502 -0.2577 
0.1186 -0.1895 0.1377 
