ply
format ascii 1.0
comment VCGLIB generated
element vertex 1250
property float x
property float y
property float z
property uchar red 
property uchar green
property uchar blue
element face 0
property list uchar int vertex_indices
end_header
0.0685258 -0.198785 -0.416601 255 0 0
-0.166915 -0.280887 0.306597 255 0 0
-0.0894647 -0.0465417 0.469822 255 0 0
0.037824 -0.263395 -0.772412 255 0 0
-0.0762435 -0.116032 0.402699 255 0 0
-0.924088 -0.184016 0.112038 255 0 0
0.902404 0.0918493 0.0340611 255 0 0
0.322722 0.101625 0.103973 255 0 0
-0.0876177 -0.204213 -0.528038 255 0 0
0.443087 0.161367 0.204938 255 0 0
0.0332964 0.108105 0.125098 255 0 0
-0.0797428 0.0213319 0.146326 255 0 0
-0.224154 0.146974 0.159218 255 0 0
0.716502 0.165683 0.223122 255 0 0
-0.328024 -0.168916 0.21689 255 0 0
-0.295288 0.104505 0.113037 255 0 0
0.612535 0.104238 0.112649 255 0 0
0.0859167 -0.0737851 -0.126673 255 0 0
-0.0927345 -0.0753708 0.420916 255 0 0
-0.0984611 -0.337808 0.306455 255 0 0
0.0985033 0.126271 0.194976 255 0 0
0.951084 -0.168181 0.165443 255 0 0
0.760646 0.130494 0.115593 255 0 0
-0.933369 0.0735436 -0.0206013 255 0 0
0.263096 0.168314 0.235417 255 0 0
0.101275 -0.0466041 0.108332 255 0 0
-0.23013 -0.238234 -0.689989 255 0 0
-0.705512 0.0949428 0.084169 255 0 0
0.134935 0.141469 0.584972 255 0 0
-0.683556 0.153307 0.175415 255 0 0
0.743873 -0.176219 0.157029 255 0 0
-0.197643 0.124056 0.199102 255 0 0
-0.137224 -0.286818 -0.883944 255 0 0
-0.00361721 -0.0622244 -0.701045 255 0 0
-0.447971 0.138945 0.135811 255 0 0
0.957009 0.0950915 0.0416591 255 0 0
0.751855 -0.189012 0.120322 255 0 0
0.377425 0.119911 0.0933431 255 0 0
0.372186 0.162687 0.208668 255 0 0
-0.601548 -0.170927 0.180606 255 0 0
-0.187601 0.132432 0.290302 255 0 0
-0.199367 -0.309209 0.442507 255 0 0
0.103917 0.10169 0.104066 255 0 0
-0.125769 0.135552 0.127572 255 0 0
0.552522 0.151315 0.28979 255 0 0
-0.235011 0.143654 0.260524 255 0 0
-0.875032 0.0972115 0.0462913 255 0 0
-0.142637 -0.248857 -0.703429 255 0 0
-0.0892958 -0.0236146 0.0535079 255 0 0
-0.0595459 -0.107764 -0.335423 255 0 0
0.229599 -0.163285 0.238553 255 0 0
-0.180926 -0.243951 -0.680111 255 0 0
-0.0565067 0.0601048 0.578236 255 0 0
0.524995 0.0919615 0.0342222 255 0 0
0.590665 0.147335 0.158569 255 0 0
-0.896547 0.161163 0.201309 255 0 0
-0.317227 0.0906902 0.0307615 255 0 0
0.344545 0.113609 0.146267 255 0 0
0.0870299 -0.270002 -0.803635 255 0 0
0.0113167 -0.0841437 0.00210468 255 0 0
-0.0210818 0.0711349 0.533322 255 0 0
-0.508086 0.108265 0.125329 255 0 0
0.189088 -0.400911 0.376018 255 0 0
0.235184 0.089108 0.0266948 255 0 0
0.0925618 -0.245322 -0.722529 255 0 0
0.13118 -0.175149 0.205992 255 0 0
0.486705 0.100288 0.0531712 255 0 0
-0.913347 0.0864186 0.018404 255 0 0
0.913367 -0.172961 0.129357 255 0 0
-0.0348273 -0.0634292 -0.0425768 255 0 0
0.00337697 -0.021195 -0.0614237 255 0 0
0.0707532 -0.1988 0.0697991 255 0 0
-0.880504 0.120882 0.0936103 255 0 0
-0.103899 0.109759 0.071506 255 0 0
-0.306127 0.164086 0.213158 255 0 0
0.147595 -0.16616 0.235288 255 0 0
0.284668 -0.181687 0.173924 255 0 0
-0.197316 -0.239252 -0.658003 255 0 0
-0.105329 -0.0840005 0.135713 255 0 0
0.196936 -0.203148 0.118855 255 0 0
-0.0058465 -0.219521 -0.601778 255 0 0
-0.64531 0.111918 0.075287 255 0 0
0.175012 0.0974112 0.0914538 255 0 0
-0.0326919 0.151487 0.29004 255 0 0
-0.864278 -0.172637 0.124816 255 0 0
0.426443 -0.197716 0.118459 255 0 0
0.0349577 -0.0465786 -0.0461728 255 0 0
-0.55227 0.11737 0.160751 255 0 0
-0.273296 0.152557 0.294043 255 0 0
-0.443016 0.102762 0.0570385 255 0 0
-0.847148 -0.148053 0.176715 255 0 0
0.526769 0.0735019 -0.0141934 255 0 0
-0.0681536 -0.227091 -0.223445 255 0 0
0.519504 0.085567 0.0598839 255 0 0
-0.104402 -0.150287 0.244499 255 0 0
-0.0894693 -0.175338 0.00964553 255 0 0
0.755142 0.106794 0.120989 255 0 0
0.875071 0.145451 0.154648 255 0 0
-0.0816511 -0.00951432 0.0312375 255 0 0
-0.0778655 -0.190965 -0.321935 255 0 0
0.15327 -0.167648 0.178783 255 0 0
0.585159 -0.177766 0.134696 255 0 0
-0.158549 0.123049 0.182385 255 0 0
0.0825176 0.108091 0.125077 255 0 0
-0.032766 -0.213004 -0.639066 255 0 0
-0.0304397 0.102849 0.446131 255 0 0
0.00220431 -0.067754 -0.668248 255 0 0
-0.0599366 0.135433 0.127844 255 0 0
0.55245 0.136952 0.131183 255 0 0
0.191831 0.128563 0.112335 255 0 0
0.437589 -0.153536 0.197266 255 0 0
0.984884 0.0729639 -0.00288981 255 0 0
0.2073 -0.279627 -0.849189 255 0 0
-0.382776 0.111825 0.138777 255 0 0
0.33365 0.116109 0.156473 255 0 0
-0.207818 0.0954255 0.0421361 255 0 0
-0.0277403 -0.186409 -0.620762 255 0 0
-0.087843 0.0082255 0.507236 255 0 0
0.0874833 -0.326766 0.321977 255 0 0
0.0584759 0.0610072 0.553387 255 0 0
0.0328903 0.0455893 0.0602221 255 0 0
-0.115205 -0.23578 -0.641236 255 0 0
0.634272 -0.177886 0.159775 255 0 0
0.607592 0.162118 0.208468 255 0 0
0.617892 -0.165091 0.200586 255 0 0
0.639872 0.150317 0.16725 255 0 0
0.0825452 0.141688 0.143085 255 0 0
-0.0601575 -0.258571 -0.749668 255 0 0
0.427036 0.128993 0.112035 255 0 0
-0.663115 0.0478339 0.10718 255 0 0
0.481738 0.128976 0.112011 255 0 0
-0.174745 -0.187751 0.172918 255 0 0
-0.197398 -0.274813 -0.826915 255 0 0
-0.00149628 -0.348509 -0.667112 255 0 0
0.25873 -0.207163 0.102028 255 0 0
0.0845913 -0.0963622 0.415134 255 0 0
0.174586 -0.242358 -0.672463 255 0 0
-0.137147 -0.246953 -0.727532 255 0 0
-0.142826 -0.24258 0.253394 255 0 0
0.711006 0.140778 0.250019 255 0 0
0.760685 0.129372 0.206994 255 0 0
-0.0607193 -0.0386546 -0.156102 255 0 0
-0.148088 -0.221677 -0.609418 255 0 0
0.568789 0.0871618 0.0217725 255 0 0
0.0938478 0.0276843 0.39076 255 0 0
-0.902333 0.0973492 0.0462035 255 0 0
0.0654055 -0.22077 -0.0501965 255 0 0
-0.00490869 0.00365447 -0.107215 255 0 0
-0.0148724 -0.126244 -0.48075 255 0 0
0.0940776 -0.154562 -0.115795 255 0 0
0.0191783 0.090139 0.470108 255 0 0
-0.0425371 -0.242832 -0.0817862 255 0 0
0.0840114 0.0257365 0.26126 255 0 0
0.251675 0.157927 0.191718 255 0 0
0.0423121 0.0808315 0.343893 255 0 0
0.142216 -0.140566 0.267097 255 0 0
0.00798337 0.0747012 0.172902 255 0 0
0.213299 0.0870664 0.0637745 255 0 0
0.923873 0.145936 0.158627 255 0 0
-0.00172451 0.0251256 0.331998 255 0 0
-0.804085 -0.116094 0.301008 255 0 0
0.913317 0.101561 0.0568294 255 0 0
0.0468861 -0.172253 -0.525788 255 0 0
0.0436687 0.0541518 0.378187 255 0 0
-0.508038 0.133443 0.221638 255 0 0
0.634484 0.130509 0.211448 255 0 0
0.749276 0.151485 0.170904 255 0 0
-0.0501892 -0.160728 0.349476 255 0 0
0.432634 -0.143958 0.294672 255 0 0
-0.361036 -0.160099 0.187905 255 0 0
-0.0442078 -0.26337 -0.772377 255 0 0
0.809896 0.162559 0.208182 255 0 0
0.0198672 -0.0947847 -0.389056 255 0 0
-0.831868 -0.16585 0.139703 255 0 0
-0.0304799 -0.268251 -0.445875 255 0 0
0.0541698 -0.286874 -0.884026 255 0 0
0.0497059 -0.198853 -0.531796 255 0 0
-0.159141 -0.293404 -0.915238 255 0 0
-0.426481 -0.200762 0.112422 255 0 0
0.0765792 0.113504 0.0786296 255 0 0
0.153125 0.125175 0.10455 255 0 0
-0.125816 0.0952714 0.042221 255 0 0
0.345369 0.0731521 -0.00248445 255 0 0
-0.0816316 -0.191437 -0.00820914 255 0 0
0.486173 -0.178045 0.170039 255 0 0
0.0760522 -0.286081 -0.880236 255 0 0
0.291064 0.0754311 -0.0135622 255 0 0
-0.543885 -0.139371 0.301291 255 0 0
0.0881359 -0.10537 0.36013 255 0 0
-0.0131208 -0.25843 -0.128174 255 0 0
-0.207823 -0.242245 -0.672399 255 0 0
-0.0485932 -0.128045 -0.432334 255 0 0
0.131194 0.0988641 0.0494824 255 0 0
-0.208323 -0.278196 -0.880913 255 0 0
-0.0172325 0.0955566 0.396723 255 0 0
0.399249 0.114792 0.151243 255 0 0
-0.0323591 0.00874386 -0.0734017 255 0 0
0.0620741 0.0432017 0.139671 255 0 0
-0.0453805 -0.172623 -0.536149 255 0 0
-0.034988 -0.044187 -0.221116 255 0 0
0.125801 0.0903899 0.072373 255 0 0
0.175212 -0.380416 0.41953 255 0 0
0.631179 0.0736062 0.00561034 255 0 0
-0.694686 -0.188483 0.108239 255 0 0
0.0437602 0.069496 0.277188 255 0 0
-0.57421 0.110097 0.0716266 255 0 0
0.0160407 -0.224024 -0.61839 255 0 0
0.136318 -0.221261 -0.609739 255 0 0
0.0455185 -0.104185 -0.379668 255 0 0
0.470886 0.161759 0.204425 255 0 0
-0.579698 0.120794 0.0934815 255 0 0
0.760065 -0.181619 0.14032 255 0 0
-0.016392 -0.239783 -0.751982 255 0 0
-0.629079 -0.186104 0.116612 255 0 0
0.0659466 -0.18832 0.163316 255 0 0
0.125779 0.0872924 0.0219513 255 0 0
0.0745246 0.0316635 0.546472 255 0 0
0.245601 -0.279639 -0.849206 255 0 0
-0.360878 0.132524 0.120272 255 0 0
0.317252 0.142817 0.147286 255 0 0
0.760263 0.143087 0.146996 255 0 0
-0.12079 -0.264938 -0.817445 255 0 0
0.0477129 0.0824561 0.485494 255 0 0
-0.689105 0.117228 0.0862378 255 0 0
0.0874326 -0.165109 0.0915302 255 0 0
0.0858652 0.126385 0.57509 255 0 0
-0.3718 0.151588 0.290185 255 0 0
0.0401759 -0.261862 -0.487806 255 0 0
-0.202866 -0.284904 0.427114 255 0 0
-0.732772 0.143527 0.147634 255 0 0
-0.0590631 0.0413698 0.130822 255 0 0
0.273387 -0.170092 0.211533 255 0 0
-0.159045 -0.245849 -0.722222 255 0 0
-0.836721 0.106576 0.0643478 255 0 0
0.929681 0.0784528 -0.0123149 255 0 0
-0.00231483 -0.0317524 -0.712038 255 0 0
-0.610349 0.0740519 0.00728088 255 0 0
-0.011061 -0.275379 -0.350983 255 0 0
-0.133048 -0.191616 0.399505 255 0 0
-0.0390103 -0.0338964 -0.0460982 255 0 0
-0.056877 -0.235339 -0.460258 255 0 0
-0.0803605 -0.169277 0.166483 255 0 0
0.0399961 -0.113486 0.487052 255 0 0
0.0223614 -0.302664 0.398513 255 0 0
-0.0452742 -0.254202 -0.207361 255 0 0
-0.0471939 -0.00910415 -0.0947001 255 0 0
-0.0640911 0.024709 0.0536284 255 0 0
0.803977 -0.163134 0.152607 255 0 0
0.552371 -0.167661 0.156813 255 0 0
0.213197 -0.165079 0.23366 255 0 0
-0.585143 -0.168634 0.189599 255 0 0
0.0113564 -0.237975 0.0375745 255 0 0
0.0973969 -0.122622 0.141117 255 0 0
-0.541302 0.152637 0.294157 255 0 0
0.109502 0.14665 0.272078 255 0 0
0.809513 0.143346 0.260078 255 0 0
-0.00579308 -0.200142 -0.509572 255 0 0
0.0985383 -0.0578624 0.403438 255 0 0
0.0121456 -0.274379 -0.383694 255 0 0
0.0329315 0.152467 0.293912 255 0 0
-0.0276972 -0.200436 -0.509462 255 0 0
0.820409 0.140745 0.249973 255 0 0
0.118131 0.138176 0.577579 255 0 0
-0.0107266 -0.237681 -0.765484 255 0 0
-0.656164 -0.169702 0.143728 255 0 0
-0.459555 -0.170762 0.155344 255 0 0
0.0600213 0.0683201 0.279981 255 0 0
0.00543681 -0.133341 -0.518661 255 0 0
0.0432657 -0.275683 -0.830818 255 0 0
0.0398553 -0.137674 0.432544 255 0 0
-0.524945 -0.17285 0.182472 255 0 0
0.771118 0.0916686 0.0758976 255 0 0
0.0870107 -0.0231769 0.0118718 255 0 0
-0.628915 0.0920815 0.0764962 255 0 0
-0.678058 -0.174399 0.162336 255 0 0
-0.40478 -0.196969 0.111113 255 0 0
0.0104744 -0.0104269 -0.147726 255 0 0
0.0491705 -0.282178 -0.861322 255 0 0
-0.00604579 -0.182809 -0.651071 255 0 0
0.273464 0.0752355 -0.0106159 255 0 0
-0.399206 0.0948524 0.0840384 255 0 0
-0.028525 -0.26691 -0.62258 255 0 0
0.864071 -0.167848 0.140479 255 0 0
-0.262457 0.145787 0.155134 255 0 0
-0.546839 -0.168247 0.194883 255 0 0
0.000103936 -0.214836 -0.541879 255 0 0
-0.866626 -0.132856 0.216928 255 0 0
-0.0668146 -0.192141 -0.436642 255 0 0
-0.0984508 -0.326411 0.321857 255 0 0
0.634457 0.116021 0.156344 255 0 0
-0.0843796 0.0348216 0.49644 255 0 0
-0.557934 -0.150842 0.195191 255 0 0
-0.00346753 -0.38611 -0.66772 255 0 0
0.103161 -0.189133 0.1713 255 0 0
-0.874961 -0.167842 0.162022 255 0 0
0.028476 -0.185728 -0.609785 255 0 0
-0.06965 -0.226209 -0.145143 255 0 0
0.071671 -0.194909 0.107811 255 0 0
-0.17687 -0.137883 0.316635 255 0 0
0.122973 -0.228452 0.226383 255 0 0
0.0841972 -0.134348 0.267123 255 0 0
-0.0323834 0.0686247 0.508126 255 0 0
0.711062 0.142701 0.147117 255 0 0
-0.0218837 -0.269502 -0.665885 255 0 0
0.864099 -0.14606 0.189286 255 0 0
0.0451182 -0.0340215 -0.172048 255 0 0
-0.664661 0.0688179 0.220489 255 0 0
0.0432748 -0.271588 -0.811416 255 0 0
0.0156967 -0.117779 0.493061 255 0 0
-0.0332688 -0.252776 -0.758979 255 0 0
0.174542 -0.254837 -0.766667 255 0 0
0.229677 0.0847136 0.0140762 255 0 0
-0.0211533 -0.27391 -0.637286 255 0 0
0.093287 0.0818352 0.0477643 255 0 0
-0.568611 0.148148 0.277368 255 0 0
0.0489661 0.0712463 0.312787 255 0 0
-0.0426355 0.0851334 0.39823 255 0 0
0.300636 -0.202877 0.112911 255 0 0
-0.0402546 -0.261255 -0.41497 255 0 0
-0.0299669 0.094836 0.457929 255 0 0
0.0869023 -0.00965367 0.0767566 255 0 0
0.104577 -0.0293172 0.33404 255 0 0
-0.557735 -0.165444 0.202588 255 0 0
-0.15311 -0.336804 0.357579 255 0 0
0.0169817 -0.0521723 -0.266242 255 0 0
-0.0820321 -0.318419 0.335652 255 0 0
-0.306347 0.0794658 -0.00651983 255 0 0
-0.0218965 -0.335331 0.309522 255 0 0
-0.12619 -0.222482 -0.613328 255 0 0
-0.0326035 0.0529309 0.565223 255 0 0
0.509062 -0.175445 0.143029 255 0 0
-0.0753597 -0.0587472 0.513415 255 0 0
0.0769636 -0.0131695 0.550161 255 0 0
0.0105431 -0.239804 -0.695092 255 0 0
-0.000342774 -0.168822 -0.598269 255 0 0
0.563285 0.0754036 0.0203616 255 0 0
0.047499 -0.00291478 -0.0739485 255 0 0
0.0434913 -0.156058 -0.500983 255 0 0
0.0313098 -0.0556955 -0.268848 255 0 0
-0.0638733 -0.186489 0.194373 255 0 0
0.721948 -0.193901 0.109334 255 0 0
0.175715 -0.260196 0.344156 255 0 0
0.486745 -0.191233 0.115334 255 0 0
0.0849532 -0.085557 0.436938 255 0 0
0.0205896 -0.0185603 -0.0605204 255 0 0
-0.199941 -0.334373 0.285898 255 0 0
-0.208278 -0.26582 -0.784007 255 0 0
0.596085 0.0753932 0.0203474 255 0 0
-0.0223071 0.0558531 0.413916 255 0 0
-0.00594954 -0.267868 -0.831695 255 0 0
0.083077 -0.0379396 -0.057222 255 0 0
0.184702 0.131626 0.277743 255 0 0
0.0263986 -0.247761 -0.0449265 255 0 0
-0.0884864 -0.130703 0.290298 255 0 0
0.207855 -0.180558 0.148057 255 0 0
-0.203544 -0.361575 0.296493 255 0 0
-0.00484492 -0.28039 -0.742796 255 0 0
-0.082231 -0.200211 -0.117731 255 0 0
-0.842145 -0.159658 0.19061 255 0 0
0.361021 0.15357 0.297873 255 0 0
-0.743639 -0.146187 0.191271 255 0 0
0.0584909 -0.230562 -0.0774562 255 0 0
-0.00643311 0.0178554 0.293997 255 0 0
-0.0238992 -0.215197 0.174848 255 0 0
0.0919452 -0.0725325 -0.0608935 255 0 0
0.219241 -0.193656 0.123348 255 0 0
0.915586 0.0735228 0.00548866 255 0 0
0.0817774 -0.167227 0.174014 255 0 0
-0.0985138 -0.0323612 0.135422 255 0 0
0.0523772 -0.180937 0.256426 255 0 0
0.0305192 0.0867261 0.380499 255 0 0
-0.103825 -0.17848 0.209991 255 0 0
0.0424332 -0.129069 -0.445975 255 0 0
0.00576648 -0.198424 0.258441 255 0 0
0.0329041 0.0249788 0.317683 255 0 0
0.194106 0.142623 0.277941 255 0 0
-0.163716 -0.156064 0.218822 255 0 0
0.189914 0.14222 0.298643 255 0 0
0.0900363 -0.10706 0.316128 255 0 0
-0.169436 -0.181957 0.191419 255 0 0
-0.102548 -0.0842211 0.0918603 255 0 0
-0.321441 0.0743759 0.0112689 255 0 0
0.955841 0.113438 0.102605 255 0 0
-0.0051218 -0.335725 -0.597205 255 0 0
0.0553239 0.0703652 0.353985 255 0 0
0.125934 -0.146472 0.313504 255 0 0
-0.288084 -0.208302 0.10256 255 0 0
-0.142174 -0.208148 0.118599 255 0 0
0.0956674 -0.0904043 0.283429 255 0 0
-0.880551 0.0750602 0.0156179 255 0 0
-0.0026861 -0.0729718 0.567781 255 0 0
-0.0496979 -0.264958 -0.817476 255 0 0
-0.137125 -0.238263 -0.686029 255 0 0
0.0972721 -0.0786577 0.381633 255 0 0
-0.0109441 0.111347 0.429325 255 0 0
-0.388014 -0.160503 0.238818 255 0 0
-0.0516169 0.0760882 0.518536 255 0 0
0.0518683 -0.228781 0.00959266 255 0 0
0.256542 -0.25536 -0.772003 255 0 0
0.0758723 0.0451864 0.273768 255 0 0
0.0521475 -0.21979 0.0484916 255 0 0
-0.295544 -0.169914 0.170475 255 0 0
-0.0217555 0.0405499 0.381611 255 0 0
-0.0224209 -0.299238 -0.942598 255 0 0
-0.0399132 -0.253915 -0.158462 255 0 0
0.662715 -0.0845203 0.195486 255 0 0
-0.0541734 -0.0588207 -0.223311 255 0 0
-0.0816813 -0.0607992 0.487716 255 0 0
0.0668215 -0.221203 -0.340104 255 0 0
0.804295 -0.149141 0.18531 255 0 0
0.0380018 -0.180839 -0.576188 255 0 0
-0.153169 0.0738494 0.169171 255 0 0
0.202419 0.154715 0.30094 255 0 0
0.92995 -0.188761 0.101645 255 0 0
0.098555 -0.0156415 0.273844 255 0 0
-0.224728 -0.280191 -0.890106 255 0 0
-0.037469 0.0530787 0.623127 255 0 0
0.0817724 -0.0621273 0.489146 255 0 0
-0.634265 0.146296 0.155392 255 0 0
0.0980591 -0.22045 -0.605823 255 0 0
-0.765562 -0.173372 0.156474 255 0 0
0.0922889 -0.155651 -0.159795 255 0 0
-0.585186 -0.197214 0.107691 255 0 0
0.00279361 -0.144275 -0.799569 255 0 0
-0.00370579 -0.220775 -0.799585 255 0 0
-0.000226072 -0.0359666 -0.22263 255 0 0
-0.114822 0.0906306 0.030675 255 0 0
-0.596157 0.0779531 -0.0159436 255 0 0
0.0566696 -0.0385564 -0.166353 255 0 0
-0.243942 0.0736747 0.00342457 255 0 0
-0.0881867 -0.174091 -0.195524 255 0 0
0.071977 -0.0113454 0.580764 255 0 0
0.1144 -0.235848 -0.641334 255 0 0
0.086097 -0.183076 -0.0501565 255 0 0
-0.0253494 0.0453255 0.064227 255 0 0
0.01113 0.0565642 0.452003 255 0 0
-0.760188 -0.191263 0.107666 255 0 0
0.787522 0.0945022 0.0835318 255 0 0
-0.0256502 -0.263196 -0.684582 255 0 0
0.00281672 -0.0840866 -0.788555 255 0 0
0.11566 -0.176534 0.160897 255 0 0
0.0940994 -0.128329 0.173918 255 0 0
-0.0852126 -0.0850093 -0.153803 255 0 0
-0.0194871 0.0782345 0.234416 255 0 0
-0.00599411 -0.290952 -0.903602 255 0 0
0.00281598 -0.0512812 -0.810447 255 0 0
-0.0922315 0.0235822 0.288935 255 0 0
-0.956004 0.112502 0.103721 255 0 0
-0.0939752 0.00863359 0.431036 255 0 0
-0.21917 -0.26222 -0.767202 255 0 0
-0.13105 -0.192562 0.163199 255 0 0
0.0112125 -0.00286239 -0.0639529 255 0 0
-0.344613 -0.146513 0.229402 255 0 0
-0.519475 -0.192638 0.125764 255 0 0
-0.0119586 0.0567856 0.221208 255 0 0
0.0196245 -0.0571501 -0.279344 255 0 0
-0.091515 -0.155169 0.14659 255 0 0
-0.0763772 -0.101981 -0.247013 255 0 0
-0.0461097 0.0814293 0.507634 255 0 0
-0.0691089 -0.164207 0.282982 255 0 0
-0.0380817 0.0332823 0.349617 255 0 0
0.218354 -0.249655 -0.744685 255 0 0
-0.426751 0.0788321 -0.0109855 255 0 0
-0.891585 -0.177925 0.114026 255 0 0
0.0956643 0.0089612 0.441955 255 0 0
-0.0329864 0.11394 0.492236 255 0 0
0.176824 -0.292207 0.38715 255 0 0
0.661668 -0.180292 0.150762 255 0 0
-0.100088 -0.0955864 0.23971 255 0 0
-0.15312 -0.324296 0.325281 255 0 0
0.034166 -0.107676 -0.405965 255 0 0
0.0513792 -0.20621 0.135917 255 0 0
0.240656 -0.179867 0.147743 255 0 0
-0.902267 0.123268 0.182702 255 0 0
0.0405117 -0.205519 0.189723 255 0 0
0.0227695 -0.238475 0.0212387 255 0 0
0.54175 -0.192651 0.12451 255 0 0
0.0263576 -0.27046 -0.476901 255 0 0
-0.00350052 -0.118236 -0.533054 255 0 0
-0.0779634 -0.173983 0.186381 255 0 0
0.0594126 0.0735876 0.466187 255 0 0
-0.486675 0.137258 0.131627 255 0 0
0.130911 -0.224256 -0.623939 255 0 0
0.0653341 -0.0800627 -0.243568 255 0 0
-0.072289 -0.0113591 -0.0332584 255 0 0
0.0614867 -0.0598997 -0.204961 255 0 0
0.0209915 -0.0119435 0.641387 255 0 0
-0.481273 -0.192351 0.130148 255 0 0
0.0492182 -0.0965323 0.503353 255 0 0
0.158068 -0.286397 -0.917471 255 0 0
-0.0542793 -0.246763 -0.363959 255 0 0
-0.659963 0.0738029 -0.0204573 255 0 0
-0.0282828 -0.266487 -0.290873 255 0 0
0.0623125 -0.115999 -0.340677 255 0 0
0.0471594 0.0816628 0.501195 255 0 0
-0.0850262 -0.150077 -0.257821 255 0 0
0.118546 -0.189529 0.137492 255 0 0
-0.0264632 0.0681881 0.485223 255 0 0
-0.973459 0.0814201 0.00169968 255 0 0
-0.836734 -0.153264 0.21201 255 0 0
0.103899 -0.0788937 0.184826 255 0 0
-0.188922 -0.400599 0.37618 255 0 0
-0.0363792 0.0984543 0.474234 255 0 0
0.661218 -0.150514 0.247372 255 0 0
-0.0367315 -0.26357 -0.35837 255 0 0
-0.25353 -0.286982 -0.889295 255 0 0
-0.0506275 -0.237733 -0.062561 255 0 0
-0.663532 -0.116908 0.183445 255 0 0
-0.153635 -0.284807 -0.908038 255 0 0
-0.000337361 -0.263523 -0.175682 255 0 0
0.0274287 0.0586447 0.258792 255 0 0
-0.311896 -0.13923 0.262291 255 0 0
0.0318326 0.0819549 0.556003 255 0 0
-0.0034076 0.0582409 0.400809 255 0 0
0.0990328 -0.0453288 0.429542 255 0 0
0.0841292 -0.123458 0.310726 255 0 0
0.00560171 -0.236583 -0.778091 255 0 0
-0.186329 -0.238447 -0.689908 255 0 0
-0.186425 -0.279803 -0.886022 255 0 0
0.907878 -0.161664 0.150962 255 0 0
-0.12057 0.0415846 0.187349 255 0 0
0.535889 0.0773089 0.0308248 255 0 0
0.103867 -0.0351834 0.316138 255 0 0
0.880494 0.0859001 0.0176782 255 0 0
0.0865159 0.0222632 0.273859 255 0 0
-0.0782454 -0.171665 -0.31293 255 0 0
0.0299617 -0.225492 0.0868106 255 0 0
0.0779591 -0.182915 -0.301998 255 0 0
-0.0653245 -0.0704589 -0.21761 255 0 0
0.164095 0.0986846 0.049498 255 0 0
-0.076047 -0.139218 0.341192 255 0 0
0.0669742 -0.205695 0.0539886 255 0 0
-0.432174 -0.190563 0.120826 255 0 0
0.229698 0.100564 0.0532111 255 0 0
-0.235217 0.097153 0.0459182 255 0 0
-0.0405707 -0.183617 0.289865 255 0 0
0.174377 -0.319385 0.296741 255 0 0
-0.0984523 -0.139721 -0.0453872 255 0 0
0.0201844 -0.188719 -0.635084 255 0 0
0.114904 -0.146252 0.245306 255 0 0
0.0950439 -0.144158 -0.132293 255 0 0
0.0707501 -0.209264 -0.515307 255 0 0
-0.618154 -0.163916 0.159213 255 0 0
-0.377122 -0.1509 0.212115 255 0 0
0.0278964 0.0535619 0.443495 255 0 0
0.656291 0.0869858 0.0217941 255 0 0
-0.00560154 -0.184733 0.311051 255 0 0
0.00999994 0.133926 0.500423 255 0 0
-0.0379851 0.0742095 0.452928 255 0 0
0.0720511 0.0462685 0.527976 255 0 0
0.0850617 0.0427308 0.414567 255 0 0
0.858592 0.0753158 0.0202355 255 0 0
-0.147704 0.106373 0.0641135 255 0 0
0.0889745 -0.101449 -0.159281 255 0 0
0.0109952 -0.0181235 -0.163928 255 0 0
-0.0229634 -0.235265 0.03774 255 0 0
-0.131604 -0.234676 -0.63603 255 0 0
0.136252 -0.25013 -0.744549 255 0 0
0.0028847 -0.144325 -0.586264 255 0 0
-0.0442506 -0.206224 -0.536657 255 0 0
0.0815536 -0.272697 -0.816633 255 0 0
-0.229669 -0.201325 0.128938 255 0 0
0.180493 0.0967406 0.0459004 255 0 0
0.038399 -0.161051 -0.525882 255 0 0
0.0894815 -0.0794959 0.425736 255 0 0
0.0179608 -0.27131 -0.679703 255 0 0
-0.0149198 0.00922563 0.650308 255 0 0
-0.078977 -0.0285961 -0.0396698 255 0 0
0.0620424 -0.0320015 -0.0233805 255 0 0
-0.983462 0.0735837 -0.00125258 255 0 0
-0.16211 -0.27239 0.314097 255 0 0
-0.00599245 -0.263682 -0.772392 255 0 0
0.56881 0.104263 0.0602376 255 0 0
0.0054657 -0.110881 0.507867 255 0 0
0.0993334 -0.00267354 0.40315 255 0 0
0.103261 -0.202672 -0.52042 255 0 0
0.0811738 0.0501833 0.367069 255 0 0
-0.131095 0.172221 0.272487 255 0 0
0.102115 -0.0624393 0.212231 255 0 0
-0.0872444 -0.167395 0.250388 255 0 0
-0.284295 0.172663 0.283552 255 0 0
-0.00372142 -0.177059 -0.865176 255 0 0
-0.00367336 -0.20439 -0.733879 255 0 0
-0.00367132 -0.133278 -0.777663 255 0 0
0.442989 0.0890463 0.0266066 255 0 0
0.0622084 -0.12438 0.430138 255 0 0
-0.552335 0.089171 0.0270807 255 0 0
-0.180746 -0.295295 -0.924428 255 0 0
0.0774069 -0.104585 0.435437 255 0 0
-0.202024 -0.294575 0.298608 255 0 0
0.164082 0.0889693 0.0267759 255 0 0
0.0647385 0.212066 0.266912 255 0 0
0.388274 0.080679 0.00117381 255 0 0
0.0640985 -0.237326 -0.241804 255 0 0
-0.475827 0.0936854 0.0384797 255 0 0
-0.700054 0.0805507 -0.00245809 255 0 0
0.0398491 -0.240963 -0.0497202 255 0 0
-0.0228091 -0.186424 0.295157 255 0 0
0.103977 -0.0898236 0.141122 255 0 0
-0.0251995 -0.100573 0.515683 255 0 0
-0.126096 0.0735417 0.339063 255 0 0
0.656421 0.17139 0.26675 255 0 0
-0.891504 -0.119959 0.262543 255 0 0
-0.101704 -0.0240586 0.387331 255 0 0
0.0104036 -0.0463093 -0.0547724 255 0 0
0.034669 -0.236878 0.0177443 255 0 0
-0.0560422 -0.050255 -0.202508 255 0 0
0.497807 0.169642 0.245216 255 0 0
0.585701 0.166821 0.227578 255 0 0
0.00276103 -0.231773 -0.81599 255 0 0
0.290362 -0.175384 0.153923 255 0 0
-0.191438 0.0823691 0.0052821 255 0 0
-0.0742049 0.0548359 0.46934 255 0 0
-0.049359 -0.158131 -0.495243 255 0 0
0.0613506 -0.161148 0.294727 255 0 0
-0.0437566 -0.237 -0.645767 255 0 0
-0.948296 0.128398 0.114322 255 0 0
0.102099 -0.0678814 0.179329 255 0 0
0.448415 -0.13845 0.245166 255 0 0
-0.502661 -0.175247 0.143761 255 0 0
0.0424371 0.0740906 0.430893 255 0 0
-0.86949 0.132673 0.120489 255 0 0
0.0354332 0.0544826 0.0846533 255 0 0
0.207844 0.114848 0.151325 255 0 0
-0.519478 -0.135981 0.313681 255 0 0
-0.0984994 -0.0835193 -0.00661251 255 0 0
0.0850067 -0.0248751 0.519154 255 0 0
0.70549 0.0762494 0.025561 255 0 0
-0.0761997 -0.0669597 -0.160303 255 0 0
0.421215 0.17176 0.266851 255 0 0
0.102184 -0.0789353 0.152026 255 0 0
-0.131271 -0.201252 0.120396 255 0 0
0.14771 0.0960698 0.0876352 255 0 0
-0.72737 -0.18018 0.140555 255 0 0
-0.426617 0.100858 0.0533909 255 0 0
0.57983 0.158004 0.30298 255 0 0
0.158627 -0.135775 0.289091 255 0 0
-0.535796 0.172536 0.294359 255 0 0
0.00182371 -0.177097 -0.706575 255 0 0
-0.224101 0.17175 0.267126 255 0 0
-0.00370313 -0.187971 -0.815977 255 0 0
-0.295202 -0.157735 0.260679 255 0 0
-0.311745 -0.181212 0.179079 255 0 0
0.0761412 -0.251919 -0.718024 255 0 0
-0.765512 0.149605 0.282552 255 0 0
-0.0476899 0.0469019 0.321623 255 0 0
-0.169528 0.0775165 0.0311253 255 0 0
0.0676342 0.0827331 0.603488 255 0 0
-0.00364881 -0.188 -0.690175 255 0 0
0.0223913 -0.223995 0.108725 255 0 0
-0.333118 0.168289 0.235771 255 0 0
-0.0663447 -0.210753 0.0437341 255 0 0
0.828632 0.169836 0.284976 255 0 0
0.825831 0.116581 0.0856807 255 0 0
0.136721 0.121982 0.0970068 255 0 0
0.00532761 -0.267813 -0.225086 255 0 0
-0.431996 0.119051 0.089738 255 0 0
-0.0955063 -0.154539 0.0262194 255 0 0
0.0464056 0.0576744 0.321485 255 0 0
0.180895 -0.150967 0.222677 255 0 0
-0.054043 -0.0784296 -0.277818 255 0 0
-0.0573752 -0.21563 -0.493353 255 0 0
-0.0112008 -0.103958 -0.422546 255 0 0
-0.0975329 -0.144317 -0.0666594 255 0 0
0.0821374 0.170165 0.245395 255 0 0
0.179966 -0.400196 0.327021 255 0 0
-0.462647 0.0737392 0.00351798 255 0 0
0.0328129 -0.259398 -0.753508 255 0 0
-0.0483686 0.0414255 0.305222 255 0 0
-0.0040205 0.0582081 0.416309 255 0 0
-0.771048 -0.163978 0.184479 255 0 0
-0.201472 -0.260197 0.396919 255 0 0
-0.765516 0.17171 0.261857 255 0 0
0.119889 -0.240444 -0.663439 255 0 0
-0.011293 -0.218528 -0.559475 255 0 0
-0.000345473 -0.21273 -0.569278 255 0 0
0.186008 -0.226071 -0.632463 255 0 0
0.141697 -0.273705 -0.85906 255 0 0
-0.159109 -0.273119 -0.853532 255 0 0
-0.361004 -0.141512 0.245911 255 0 0
-0.579599 0.172849 0.289079 255 0 0
-0.513897 0.17283 0.289051 255 0 0
-0.0598049 -0.225736 -0.0408437 255 0 0
0.00287165 -0.138734 -0.547962 255 0 0
-0.00361771 -0.149711 -0.640964 255 0 0
-0.00371545 -0.182463 -0.848777 255 0 0
0.313972 0.0737007 0.00574516 255 0 0
0.110866 -0.207341 0.197592 255 0 0
-0.639843 0.0757573 0.0208755 255 0 0
-0.0557565 -0.0284612 -0.133301 255 0 0
0.102911 -0.0296553 0.414443 255 0 0
0.0338279 -0.245957 -0.0718595 255 0 0
0.546806 -0.157377 0.232719 255 0 0
0.096328 -0.101446 0.245225 255 0 0
0.0840283 0.0248377 0.512466 255 0 0
-0.28976 0.11939 0.16834 255 0 0
0.355599 0.142181 0.255172 255 0 0
0.0102315 0.0789577 0.228404 255 0 0
0.0384835 -0.264593 -0.351203 255 0 0
-0.105732 -0.0405455 0.332527 255 0 0
-0.869471 0.12086 0.173588 255 0 0
-0.842151 -0.163455 0.17881 255 0 0
-0.101418 -0.101171 0.174008 255 0 0
-0.09681 -0.0670518 0.00408187 255 0 0
0.0699315 0.067181 0.350778 255 0 0
-0.55772 0.169254 0.240367 255 0 0
-0.188995 0.142231 0.298005 255 0 0
-0.0711119 -0.340015 0.304042 255 0 0
0.0925818 -0.0453174 0.474545 255 0 0
0.0884835 -0.0234744 0.0418418 255 0 0
0.0029097 -0.122435 -0.542458 255 0 0
0.0889135 -0.172289 0.00439496 255 0 0
-0.78193 0.141217 0.250657 255 0 0
0.514115 0.109476 0.0713315 255 0 0
-0.382897 -0.13661 0.262322 255 0 0
-0.153592 -0.272627 -0.816533 255 0 0
-0.0654171 -0.220938 -0.0249703 255 0 0
-0.705505 0.0993098 0.0966605 255 0 0
0.344625 0.172276 0.293984 255 0 0
0.0220664 0.0645282 0.507201 255 0 0
0.0166082 -0.256043 -0.110285 255 0 0
-0.147601 0.171528 0.261693 255 0 0
-0.191428 0.0775228 0.0311347 255 0 0
0.349982 0.0763549 0.0257134 255 0 0
0.590748 -0.123306 0.30501 255 0 0
-0.0492155 0.0841208 0.376334 255 0 0
-0.105859 -0.0514926 0.277924 255 0 0
0.618123 0.172 0.272167 255 0 0
0.097507 -0.144272 -0.077653 255 0 0
0.0769537 0.0584143 0.455275 255 0 0
0.099763 -0.122794 0.0152632 255 0 0
0.101909 -0.073608 0.206728 255 0 0
-0.145439 0.0739052 0.00694548 255 0 0
0.147212 -0.267814 -0.82626 255 0 0
-0.0710334 0.125021 0.190048 255 0 0
0.109255 -0.204971 -0.532223 255 0 0
0.0447159 0.0522888 0.348785 255 0 0
-0.0108419 0.058636 0.259308 255 0 0
-0.0697611 0.0557518 0.523638 255 0 0
-0.0321535 0.0907628 0.258425 255 0 0
0.623431 -0.14361 0.277391 255 0 0
-0.12627 -0.263346 -0.772341 255 0 0
-0.16992 -0.241458 -0.668415 255 0 0
0.0211593 -0.271003 -0.285395 255 0 0
-0.157834 -0.153166 0.64363 255 0 0
-0.0895915 -0.170347 0.0479937 255 0 0
0.6014 -0.160689 0.216695 255 0 0
-0.092217 -0.0942619 0.38081 255 0 0
0.0154312 -0.273298 -0.301993 255 0 0
-0.126243 -0.245857 -0.722236 255 0 0
-0.0426711 -0.192608 0.249363 255 0 0
0.0832175 0.0355003 0.292064 255 0 0
-0.0265519 0.106133 0.508832 255 0 0
0.831314 -0.136658 0.218202 255 0 0
-0.273433 0.0860901 0.0182715 255 0 0
-0.97747 0.0735465 -0.020532 255 0 0
0.0488341 -0.228946 -0.561602 255 0 0
0.176273 -0.379595 0.327128 255 0 0
-0.503101 0.0992498 0.0965744 255 0 0
0.535838 -0.200845 0.102711 255 0 0
0.100728 -0.0839392 0.255728 255 0 0
-0.7602 -0.123099 0.267286 255 0 0
-0.267904 0.171564 0.261644 255 0 0
0.0894383 -0.00715213 0.135547 255 0 0
-0.0205813 -0.0555133 0.598194 255 0 0
0.0111844 -0.2423 -0.713894 255 0 0
0.102415 -0.0842129 0.228526 255 0 0
-0.66395 0.0994277 0.225296 255 0 0
0.448554 -0.189827 0.138551 255 0 0
0.659807 -0.0414382 0.147796 255 0 0
-0.175498 -0.274819 -0.826924 255 0 0
-0.0581697 -0.00531133 0.10051 255 0 0
0.568648 -0.193558 0.120099 255 0 0
0.0997955 -0.116227 0.157218 255 0 0
-0.0601698 -0.346921 0.312136 255 0 0
0.0601395 -0.34386 0.326286 255 0 0
-0.0984117 -0.181079 0.196188 255 0 0
-0.0675328 -0.00900382 -0.0441902 255 0 0
0.0815822 -0.258505 -0.782129 255 0 0
-0.0974034 -0.111393 0.261406 255 0 0
-0.01095 -0.340433 0.303716 255 0 0
0.0928623 -0.0496734 -0.0130475 255 0 0
0.640033 0.161886 0.303956 255 0 0
0.000637984 0.0627771 0.49871 255 0 0
-0.0938446 -0.0850917 -0.0879478 255 0 0
-0.105817 -0.0733954 0.157616 255 0 0
0.0838202 0.0494287 0.42907 255 0 0
-0.604275 -0.182113 0.124702 255 0 0
0.013198 -0.00205933 -0.122025 255 0 0
-0.203076 -0.328607 0.433904 255 0 0
0.891504 -0.156873 0.205872 255 0 0
-0.0628744 -0.207064 0.0880444 255 0 0
0.41022 -0.136442 0.256483 255 0 0
-0.0692613 -0.216728 -0.0614182 255 0 0
0.0760905 0.0198068 0.0994385 255 0 0
0.338968 -0.181902 0.169101 255 0 0
0.658901 -0.122799 0.189879 255 0 0
-0.0777155 -0.0396612 0.534221 255 0 0
0.0651101 -0.216885 -0.416603 255 0 0
-0.0799701 -0.192349 0.0424743 255 0 0
-0.136772 -0.136592 0.305717 255 0 0
-0.0831403 0.0492275 0.343639 255 0 0
0.207812 0.150717 0.286137 255 0 0
0.022083 -0.196129 0.256135 255 0 0
0.52506 0.11915 0.167991 255 0 0
-0.0358317 0.077547 0.201422 255 0 0
-0.0346133 -0.0224219 -0.15541 255 0 0
-0.0010631 -0.344924 -0.603609 255 0 0
0.0109483 -0.335154 0.365209 255 0 0
0.0766586 0.16707 0.227795 255 0 0
0.162497 -0.298089 0.328553 255 0 0
-0.000449749 -0.277729 -0.580794 255 0 0
0.0652704 -0.166682 -0.426693 255 0 0
0.0824163 -0.0359062 0.526153 255 0 0
0.957569 -0.169675 0.131739 255 0 0
0.650856 0.116016 0.156337 255 0 0
0.14774 0.113667 0.146351 255 0 0
-0.0602884 -0.237214 -0.134249 255 0 0
-0.0278261 -0.266972 -0.789385 255 0 0
-0.0603062 -0.125057 -0.371029 255 0 0
0.0219077 0.0510276 0.425897 255 0 0
0.0329131 0.0348211 0.354586 255 0 0
-0.45395 0.0795192 -0.00643571 255 0 0
-0.0398102 -0.166431 0.34947 255 0 0
0.0943803 -0.112781 0.400727 255 0 0
-0.0751025 -0.214782 -0.25254 255 0 0
0.186301 -0.395016 0.404822 255 0 0
0.175832 -0.34102 0.44114 255 0 0
0.344438 -0.201991 0.112493 255 0 0
0.530639 -0.127184 0.289335 255 0 0
-0.000379912 -0.0401233 -0.796444 255 0 0
0.498001 0.167245 0.231916 255 0 0
0.00519755 -0.173145 0.348849 255 0 0
0.0919778 0.0035709 0.267352 255 0 0
-0.880665 -0.160836 0.146126 255 0 0
-0.148931 -0.138366 0.63883 255 0 0
-0.134551 -0.2077 -0.530719 255 0 0
0.21351 0.111964 0.0751609 255 0 0
-0.0750868 -0.191763 0.0965236 255 0 0
-0.787425 0.143816 0.26076 255 0 0
-0.333514 0.143682 0.260566 255 0 0
-0.360795 -0.15132 0.276909 255 0 0
-0.0924091 0.0206067 0.272535 255 0 0
0.14877 0.0741776 0.0103381 255 0 0
0.161068 -0.349483 0.296641 255 0 0
0.0970939 -0.00125049 0.447653 255 0 0
-0.0144105 -0.0327502 0.583196 255 0 0
0.0785062 -0.000331208 0.103253 255 0 0
-0.0276968 -0.139754 0.432473 255 0 0
-0.74918 -0.18547 0.124064 255 0 0
-0.661729 0.0955595 0.0423294 255 0 0
0.213435 -0.132594 0.300369 255 0 0
-0.0706054 -0.0673424 -0.197406 255 0 0
-0.0498046 -0.23402 -0.550762 255 0 0
0.301265 -0.171688 0.161119 255 0 0
0.273523 -0.136305 0.272842 255 0 0
-0.546863 -0.183236 0.149379 255 0 0
0.464741 -0.195825 0.109343 255 0 0
0.962558 -0.181571 0.111034 255 0 0
0.557806 0.100567 0.0529806 255 0 0
0.094231 -0.0691556 -0.0497835 255 0 0
0.371993 0.138779 0.242463 255 0 0
0.355469 -0.169005 0.163997 255 0 0
0.0720503 -0.0532546 -0.154262 255 0 0
-0.317079 -0.14524 0.308393 255 0 0
-0.00238864 -0.314194 -0.729606 255 0 0
-0.0366336 -0.107356 -0.401235 255 0 0
0.174394 -0.393608 0.387426 255 0 0
0.0917382 -0.00153118 0.201749 255 0 0
-0.0313884 -0.112651 -0.432238 255 0 0
-0.188975 -0.330412 0.436997 255 0 0
0.0944765 -0.150299 0.0426597 255 0 0
0.104007 0.149349 0.282181 255 0 0
-0.137162 -0.252646 -0.758933 255 0 0
0.721883 0.0817799 0.00499363 255 0 0
-0.365142 0.0743888 0.0112876 255 0 0
-0.0986883 -0.000372093 0.266833 255 0 0
0.0710678 -0.206293 0.0396264 255 0 0
-0.0194622 0.0790203 0.596625 255 0 0
-0.119759 0.141747 0.143171 255 0 0
0.683573 0.072855 -0.0122905 255 0 0
-0.377448 -0.169389 0.164809 255 0 0
0.459833 0.105681 0.117215 255 0 0
-0.279001 -0.142637 0.251775 255 0 0
-0.0318781 -0.267684 -0.301972 255 0 0
0.25161 0.109653 0.0713536 255 0 0
0.793016 0.104096 0.0602008 255 0 0
-0.481205 0.0962554 0.0879039 255 0 0
-0.710852 0.155813 0.184428 255 0 0
-0.831258 0.0796205 -0.00632508 255 0 0
-0.67237 -0.182896 0.138332 255 0 0
-0.289332 0.161983 0.204751 255 0 0
-0.189771 -0.289006 0.418007 255 0 0
-0.328109 0.106026 0.0644304 255 0 0
-0.4646 -0.149987 0.268854 255 0 0
0.037667 -0.151165 0.397641 255 0 0
-0.662428 -0.0576689 0.150957 255 0 0
-0.776766 -0.165066 0.144581 255 0 0
0.574176 -0.174972 0.172802 255 0 0
-0.607131 -0.146529 0.202213 255 0 0
0.782088 0.130466 0.211385 255 0 0
0.30087 0.154415 0.179896 255 0 0
0.163975 -0.178356 0.193177 255 0 0
0.0820509 0.106005 0.0641851 255 0 0
-0.629051 -0.160015 0.166419 255 0 0
0.629456 0.139727 0.139152 255 0 0
0.103969 0.156671 0.18788 255 0 0
-0.0928185 0.000771388 0.171428 255 0 0
0.00556798 0.0625486 0.356505 255 0 0
0.0312563 -0.262532 -0.603004 255 0 0
0.109031 -0.215459 -0.582426 255 0 0
-0.317166 -0.194801 0.138578 255 0 0
-0.0669273 0.0641712 0.48044 255 0 0
-0.000223298 -0.273201 -0.269285 255 0 0
0.24609 0.0933123 0.0382314 255 0 0
0.0604472 -0.23099 -0.389604 255 0 0
0.0984968 0.122974 0.182275 255 0 0
-0.0388047 -0.287746 -0.887988 255 0 0
-0.0778171 0.04159 0.239232 255 0 0
0.317265 0.151012 0.171288 255 0 0
0.0264546 -0.255702 -0.728504 255 0 0
-0.102414 -0.105873 0.184807 255 0 0
0.579707 0.100561 0.0529709 255 0 0
-0.0109676 -0.220496 0.157441 255 0 0
0.0103083 0.123938 0.447319 255 0 0
-0.00838758 0.090425 0.521321 255 0 0
-0.060099 0.121921 0.178442 255 0 0
-0.322511 0.144779 0.264562 255 0 0
-0.191414 0.098789 0.0496601 255 0 0
0.880509 0.0968241 0.0454417 255 0 0
-0.169647 -0.17765 0.162119 255 0 0
0.0602177 0.123983 0.186191 255 0 0
-0.015912 0.130722 0.115924 255 0 0
-0.102515 -0.0791166 0.631724 255 0 0
-0.0942713 -0.116908 -0.105105 255 0 0
0.557882 0.158036 0.191588 255 0 0
-0.289936 -0.16332 0.186074 255 0 0
0.382776 -0.175918 0.184284 255 0 0
0.585321 0.150206 0.285975 255 0 0
0.0547749 0.160983 0.200803 255 0 0
0.0928943 -0.167044 0.236911 255 0 0
0.0416666 -0.247648 -0.121194 255 0 0
0.443026 0.120493 0.0930251 255 0 0
0.158146 -0.253333 -0.758961 255 0 0
-0.0806167 0.0499742 0.398339 255 0 0
0.361004 0.102225 0.0568549 255 0 0
0.845327 0.160032 0.279367 255 0 0
-0.612522 0.100612 0.0536406 255 0 0
0.174993 0.0843486 0.0563202 255 0 0
0.645294 0.0889879 0.0265198 255 0 0
-0.333643 0.0810621 0.00141641 255 0 0
0.858609 0.0841278 0.0559582 255 0 0
0.190969 -0.249755 -0.707572 255 0 0
-0.164119 0.0937433 0.038277 255 0 0
0.0812794 -0.199874 -0.0558987 255 0 0
0.00501558 -0.254594 -0.730794 255 0 0
-0.295287 0.124108 0.100741 255 0 0
0.787567 -0.170526 0.138212 255 0 0
0.213339 -0.141298 0.316467 255 0 0
-0.109348 0.123035 0.182364 255 0 0
-0.480748 0.12764 0.199824 255 0 0
-0.328062 0.143407 0.147461 255 0 0
0.0207885 -0.274044 -0.542301 255 0 0
-0.19728 -0.220568 -0.585997 255 0 0
-0.114797 0.111561 0.0751313 255 0 0
-0.0962881 -0.122926 0.399306 255 0 0
-0.634407 0.113813 0.0788434 255 0 0
-0.792494 0.127753 0.108855 255 0 0
-0.34439 0.166176 0.303877 255 0 0
0.732935 0.161859 0.303916 255 0 0
-0.136662 0.116248 0.156673 255 0 0
0.120423 -0.137563 0.284307 255 0 0
-0.163527 0.162945 0.208596 255 0 0
0.388363 0.148992 0.163457 255 0 0
0.262551 0.118129 0.164303 255 0 0
0.913187 -0.166172 0.17466 255 0 0
-0.355597 -0.137817 0.26251 255 0 0
0.754731 0.100198 0.0999872 255 0 0
-0.135129 -0.239181 0.245392 255 0 0
-0.158121 -0.341897 0.334779 255 0 0
-0.152224 0.0924974 0.263476 255 0 0
-0.563278 0.135681 0.127759 255 0 0
0.503129 -0.145675 0.280642 255 0 0
-0.793153 -0.154367 0.166591 255 0 0
0.656208 -0.155609 0.229673 255 0 0
-0.633737 0.162984 0.208897 255 0 0
0.191017 -0.222077 -0.613563 255 0 0
-0.191889 -0.264117 -0.813515 255 0 0
0.10166 -0.0675595 0.0862169 255 0 0
-0.0168138 0.100352 0.414325 255 0 0
0.0258551 -0.264815 -0.673404 255 0 0
-0.0897308 -0.0185104 0.50733 255 0 0
-0.00512165 0.0837079 0.58922 255 0 0
-0.563207 -0.149555 0.257495 255 0 0
0.519635 -0.128779 0.281639 255 0 0
0.634521 0.150192 0.285955 255 0 0
-0.251559 0.11938 0.168324 255 0 0
0.27393 0.106935 0.121196 255 0 0
-0.00642857 -0.220688 -0.741682 255 0 0
-0.229714 0.0858075 0.0602737 255 0 0
0.0219082 0.122115 0.0969752 255 0 0
-0.04714 -0.0257113 -0.143905 255 0 0
0.0263654 -0.211012 0.179728 255 0 0
-0.189111 -0.394704 0.397482 255 0 0
-0.190613 -0.278081 0.312208 255 0 0
-0.366353 0.150514 0.16748 255 0 0
-0.109429 -0.335305 0.309559 255 0 0
-0.0989327 -0.141332 0.0021404 255 0 0
-0.759629 0.167915 0.231953 255 0 0
-0.158628 -0.332892 0.312682 255 0 0
-0.0528842 -0.0918507 -0.318422 255 0 0
0.0597529 -0.242325 -0.672413 255 0 0
0.659194 -0.0950602 0.153085 255 0 0
-0.793169 -0.168459 0.137187 255 0 0
0.0720057 -0.218818 -0.285104 255 0 0
0.0847499 0.00183982 0.0866304 255 0 0
-0.0808668 0.01423 0.540535 255 0 0
-0.782084 -0.182358 0.113179 255 0 0
0.0734956 -0.219635 -0.214403 255 0 0
0.0710734 -0.338158 0.306682 255 0 0
0.00708133 0.0737834 0.250604 255 0 0
-0.14219 -0.328016 0.397578 255 0 0
0.0472256 -0.193946 -0.558594 255 0 0
-0.036531 0.102041 0.490334 255 0 0
0.0445174 -0.216203 0.115917 255 0 0
0.063928 -0.177376 -0.449295 255 0 0
0.546974 0.126137 0.194785 255 0 0
-0.0474289 -0.142942 0.40738 255 0 0
-0.0393321 -0.188116 -0.576256 255 0 0
0.032297 -0.287767 -0.888018 255 0 0
-0.0475689 0.0826248 0.485635 255 0 0
0.0446629 -0.232535 -0.608403 255 0 0
-0.0176316 -0.0794141 -0.346535 255 0 0
0.0525743 -0.241966 -0.482306 255 0 0
0.145138 0.0645999 0.176742 255 0 0
-0.678097 0.104618 0.113201 255 0 0
-0.139634 0.0727662 0.252067 255 0 0
-0.0837725 -0.17327 0.140782 255 0 0
-0.0835989 -0.100393 -0.181608 255 0 0
0.618071 -0.16778 0.152185 255 0 0
-0.0114317 -0.271462 -0.848494 255 0 0
-0.202337 -0.354378 0.308794 255 0 0
-0.0256084 0.0704297 0.306718 255 0 0
0.175564 -0.385091 0.311126 255 0 0
-0.00557547 -0.0949293 -0.0391066 255 0 0
-0.492249 -0.164756 0.16606 255 0 0
0.050044 0.0883415 0.460694 255 0 0
-0.0951414 -0.139556 0.0974443 255 0 0
0.0547677 -0.0732241 -0.263262 255 0 0
-0.0289008 -0.270173 -0.353174 255 0 0
-0.0380311 0.0722843 0.300724 255 0 0
-0.213247 0.125063 0.190109 255 0 0
0.673199 -0.160209 0.212365 255 0 0
0.672572 0.0776598 -0.0175151 255 0 0
-0.962568 0.0734215 -0.0168684 255 0 0
0.0451975 -0.0147645 -0.116141 255 0 0
0.776556 -0.127264 0.31393 255 0 0
0.08286 -0.196541 -0.197902 255 0 0
0.284332 -0.202771 0.105518 255 0 0
-0.754701 0.103141 0.108333 255 0 0
0.0589829 -0.139882 -0.415583 255 0 0
-0.650886 -0.191595 0.10592 255 0 0
-0.105303 -0.0573103 0.17952 255 0 0
-0.148104 -0.22847 -0.640421 255 0 0
-0.0632855 -0.185993 0.211873 255 0 0
0.754793 -0.150926 0.183631 255 0 0
-0.0752499 -0.215016 -0.105536 255 0 0
-0.202283 0.12578 0.104402 255 0 0
-0.00383012 0.0797946 0.601818 255 0 0
-0.109894 -0.266738 -0.82635 255 0 0
-0.257511 -0.27949 -0.84899 255 0 0
0.0141794 0.0801703 0.59731 255 0 0
-0.879981 0.139073 0.135995 255 0 0
-0.164043 0.126348 0.195088 255 0 0
0.345052 0.14161 0.142973 255 0 0
0.148143 0.13877 0.135556 255 0 0
0.563801 0.166827 0.227588 255 0 0
-0.110635 -0.199577 0.200689 255 0 0
-0.185891 -0.328703 0.397695 255 0 0
0.180519 0.155422 0.30085 255 0 0
0.0711243 -0.141944 0.267526 255 0 0
0.289847 -0.195079 0.134718 255 0 0
-0.0622476 -0.146428 0.366585 255 0 0
-0.0436895 0.0630977 0.380726 255 0 0
0.189487 -0.379306 0.359823 255 0 0
0.984392 0.0745104 0.0148222 255 0 0
-0.197421 0.133547 0.243705 255 0 0
-0.00491543 0.166994 0.22783 255 0 0
0.159365 0.0732075 -0.00240331 255 0 0
-0.0791453 0.0029631 0.552131 255 0 0
-0.190969 -0.316912 0.442602 255 0 0
-0.00511104 -0.151858 0.41846 255 0 0
-0.0110168 0.0577012 0.108105 255 0 0
-0.0167866 0.0750545 0.190413 255 0 0
0.108971 -0.248132 -0.699736 255 0 0
-0.0544839 -0.220059 0.0513171 255 0 0
0.202251 -0.192756 0.147356 255 0 0
-0.0597757 -0.220151 0.023999 255 0 0
-0.174478 0.108267 0.125187 255 0 0
0.131283 0.163757 0.212971 255 0 0
-0.596078 -0.128159 0.315316 255 0 0
0.809486 -0.168041 0.176803 255 0 0
-0.0926214 -0.166912 -0.0944875 255 0 0
-0.874972 -0.175137 0.14082 255 0 0
-0.0491983 -0.230007 -0.608462 255 0 0
-0.198832 -0.407792 0.356882 255 0 0
0.159182 0.135244 0.229053 255 0 0
-0.229548 0.0772844 -0.0135301 255 0 0
0.196478 -0.24626 -0.690773 255 0 0
-0.0770201 0.00277163 0.0481987 255 0 0
-0.0867674 0.00125964 0.102924 255 0 0
0.0212333 -0.202624 0.239133 255 0 0
-0.0507879 0.00863914 0.09465 255 0 0
0.754719 -0.149041 0.244433 255 0 0
-0.0104219 -0.116173 0.496873 255 0 0
-0.167828 -0.139262 0.648638 255 0 0
0.213268 0.0801215 -0.00281665 255 0 0
0.00844541 -0.247759 -0.0308481 255 0 0
-0.541377 -0.123774 0.310094 255 0 0
0.0989835 -0.137957 0.284516 255 0 0
0.0049542 -0.280557 -0.890104 255 0 0
-0.825842 -0.144961 0.186407 255 0 0
0.202463 0.0755765 -0.010275 255 0 0
-0.831232 0.0833768 0.0528595 255 0 0
-0.398827 0.0804912 0.0434242 255 0 0
-0.0543879 -0.206418 -0.553054 255 0 0
0.0129716 0.0873681 0.480309 255 0 0
-0.0376676 0.0609632 0.433324 255 0 0
0.092109 0.00989709 0.289054 255 0 0
0.0400466 0.0753165 0.194589 255 0 0
-0.33913 -0.157608 0.196697 255 0 0
0.815072 -0.166436 0.144801 255 0 0
0.0169385 0.0185398 0.287188 255 0 0
-0.0421495 -0.0949572 0.512891 255 0 0
-0.0267404 -0.202609 0.233654 255 0 0
0.514456 -0.180945 0.132225 255 0 0
0.0646252 -0.0694814 0.525352 255 0 0
0.0455337 0.0784122 0.419993 255 0 0
-0.0227022 -0.207697 -0.680871 255 0 0
0.082182 -0.158618 -0.289294 255 0 0
-0.171312 0.11153 0.27779 255 0 0
-0.0491574 0.0813515 0.327132 255 0 0
0.141814 -0.230062 -0.614145 255 0 0
-0.104265 -0.218501 -0.559435 255 0 0
-0.125832 -0.131272 0.632722 255 0 0
-0.338792 -0.150927 0.2816 255 0 0
-0.0719145 -0.154654 -0.36963 255 0 0
0.0141095 -0.258337 -0.129385 255 0 0
0.442936 -0.142761 0.299069 255 0 0
0.847753 -0.11818 0.299102 255 0 0
0.0321626 0.0256027 0.642191 255 0 0
-0.0984527 -0.171071 0.162689 255 0 0
-0.0934715 -0.0629658 -0.0259413 255 0 0
0.0447033 -0.259806 -0.307402 255 0 0
0.16371 0.119525 0.306749 255 0 0
0.140508 0.0947081 0.319854 255 0 0
0.120708 0.0689588 0.338857 255 0 0
0.0536455 -0.205849 -0.5524 255 0 0
-0.733343 -0.149388 0.182867 255 0 0
-0.568745 -0.170637 0.184992 255 0 0
-0.0815147 0.0394151 0.480439 255 0 0
0.189777 0.126637 0.222538 255 0 0
0.0871999 -0.179793 0.0233156 255 0 0
-0.191162 -0.189838 0.136224 255 0 0
-0.209019 -0.361887 0.355497 255 0 0
-0.129318 -0.0969817 0.640731 255 0 0
0.0616279 -0.171938 0.249923 255 0 0
0.0506823 0.058181 0.289183 255 0 0
-0.104861 -0.0365591 0.261426 255 0 0
-0.659122 -0.139018 0.220438 255 0 0
-0.268031 -0.160828 0.194465 255 0 0
-0.568486 -0.138664 0.300801 255 0 0
0.662916 0.0243784 0.12351 255 0 0
-0.0947686 -0.0401347 0.0590165 255 0 0
-0.0818849 0.0123474 0.124425 255 0 0
0.069401 -0.220169 -0.061538 255 0 0
-0.184737 -0.339981 0.29879 255 0 0
-0.0844271 0.04258 0.332537 255 0 0
0.0702889 -0.157697 -0.366591 255 0 0
-0.0391258 -0.160825 -0.533649 255 0 0
0.0350146 0.00995736 -0.0695104 255 0 0
-0.617782 -0.135051 0.309224 255 0 0
0.0252392 -0.112283 0.494859 255 0 0
-0.814908 -0.124879 0.251509 255 0 0
-0.0887362 0.0332001 0.294436 255 0 0
-0.186509 0.129936 0.2722 255 0 0
-0.0501415 -0.0199934 -0.128702 255 0 0
-0.0545628 -0.247482 -0.278757 255 0 0
-0.049758 -0.233539 -0.0426606 255 0 0
0.0553504 -0.122687 -0.386377 255 0 0
-0.0929866 0.0265652 0.321938 255 0 0
-0.0940818 -0.0725102 0.636123 255 0 0
0.0250235 0.0526563 0.297693 255 0 0
-0.0268898 0.0348333 0.117606 255 0 0
0.0607104 0.0634856 0.257479 255 0 0
0.0156614 -0.0377697 -0.229837 255 0 0
-0.584811 -0.150747 0.250604 255 0 0
-0.716374 -0.183282 0.133051 255 0 0
-0.0961321 -0.145029 -0.0174792 255 0 0
-0.0107413 -0.0574773 -0.292131 255 0 0
-0.0551137 0.0419442 0.151721 255 0 0
-0.147569 -0.143892 0.318221 255 0 0
0.00302224 -0.117116 -0.62456 255 0 0
-0.0399086 0.0632794 0.452926 255 0 0
-0.0357641 -0.214285 0.139653 255 0 0
0.0695899 -0.0529216 0.0082202 255 0 0
0.0495114 -0.0544961 -0.0327905 255 0 0
0.0583022 0.0720663 0.513688 255 0 0
-0.153281 -0.211242 0.104203 255 0 0
0.0528553 -0.246928 -0.219701 255 0 0
0.0646844 -0.225199 -0.354004 255 0 0
0.103249 -0.111612 0.0918461 255 0 0
-0.065782 -0.0386265 -0.139701 255 0 0
0.0753074 0.0553326 0.465776 255 0 0
-0.0384933 -0.241998 -0.659072 255 0 0
0.0156047 0.104851 0.382111 255 0 0
0.0432493 -0.27848 -0.843919 255 0 0
0.164221 -0.138273 0.274388 255 0 0
-0.0614317 -0.0332846 -0.0252881 255 0 0
-0.503081 0.110862 0.134827 255 0 0
0.081639 -0.194489 0.00964702 255 0 0
-0.0267645 -0.270139 -0.501979 255 0 0
-0.205896 -0.287188 0.360013 255 0 0
0.180804 -0.266192 0.323552 255 0 0
-0.125708 -0.167881 0.243904 255 0 0
-0.596075 -0.189316 0.127798 255 0 0
-0.0248809 -0.26908 -0.330976 255 0 0
-0.207814 -0.23835 -0.653398 255 0 0
-0.251663 -0.18852 0.13525 255 0 0
-0.922769 0.144779 0.163916 255 0 0
-0.105178 -0.0463814 0.228724 255 0 0
0.0648767 -0.163742 0.264224 255 0 0
0.0382919 -0.248702 -0.740108 255 0 0
0.585286 0.131922 0.21657 255 0 0
0.196394 -0.275419 -0.866884 255 0 0
-0.186004 -0.270513 -0.843919 255 0 0
-0.00340674 -0.0350668 -0.733839 255 0 0
0.184267 0.116642 0.206138 255 0 0
-0.201626 -0.405694 0.369483 255 0 0
-0.77248 -0.116105 0.309094 255 0 0
-0.0514315 0.0729973 0.347131 255 0 0
-0.950355 0.0745612 0.0115371 255 0 0
0.74385 0.133797 0.123501 255 0 0
-0.639789 -0.137841 0.294331 255 0 0
-0.0491038 0.172197 0.272451 255 0 0
-0.891243 -0.156345 0.195933 255 0 0
0.782011 -0.153145 0.22752 255 0 0
-0.237859 -0.193527 0.149844 255 0 0
0.00086041 -0.341119 -0.626911 255 0 0
0.0931016 -0.036287 0.0460769 255 0 0
