ply
format ascii 1.0
comment VCGLIB generated
element vertex 1531
property float x
property float y
property float z
element face 0
property list uchar int vertex_indices
end_header
0.364544 -0.0747996 0.378974 
-0.236625 0.231318 -0.293448 
0.143843 0.0156793 0.434666 
-0.156111 -0.321738 0.027629 
-0.403718 -0.442458 0.0779952 
0.00358814 0.283977 -0.0923067 
-0.130496 0.218639 -0.169165 
0.296876 -0.0788221 0.437116 
-0.257238 0.264836 -0.349494 
0.177602 0.0416566 0.424362 
0.0391354 0.11743 0.161711 
-0.27576 0.314779 -0.463263 
-0.0754061 0.0504485 -0.012303 
-0.0675504 -0.0629186 0.0843368 
-0.140125 0.357399 -0.333444 
0.257585 -0.00400994 -0.162181 
0.0271302 -0.018347 0.0678088 
0.0596555 -0.0685395 0.0341268 
0.0312919 0.0899235 0.0693273 
0.204426 0.329023 -0.0343138 
0.291806 -0.0277801 0.685756 
-0.346414 -0.525292 0.164137 
0.141565 0.285198 -0.0475883 
-0.343125 -0.414861 0.0249018 
0.185172 0.238118 -0.124991 
0.452708 -0.137484 0.574605 
-0.252119 0.202884 -0.318979 
-0.0390546 -0.211942 -0.0354769 
0.322 0.0131282 0.686497 
-0.243257 -0.418197 0.15634 
0.0298755 0.164221 -0.330769 
0.0837503 0.0897528 0.288041 
0.307293 -0.0178432 -0.0144814 
0.0533279 0.104128 0.0676265 
0.376018 -0.0305845 0.314142 
0.298249 0.197402 -0.0658709 
-0.396188 -0.421034 -0.019566 
0.295152 0.0505591 -0.17603 
-0.0464375 -0.223059 -0.0134608 
0.205655 0.153151 -0.133227 
-0.143267 0.21023 -0.139735 
-0.460157 -0.364345 0.129974 
-0.211021 -0.211346 0.0830451 
0.218288 -0.0592107 0.578065 
-0.213262 0.192558 -0.255681 
0.130009 0.210078 0.217115 
0.335924 0.348316 -0.0573432 
-0.132771 -0.0349291 0.0329816 
0.279303 -0.0957953 0.719235 
-0.299186 0.272947 -0.416938 
0.123091 0.019645 0.400801 
0.46101 -0.0721302 0.482054 
-0.091722 -0.135583 0.0833171 
-0.0448687 0.182189 -0.0757662 
0.085152 0.0535018 -0.172192 
-0.1053 0.19647 -0.112261 
0.24388 0.0368338 0.0768437 
0.258588 0.334034 -0.115141 
0.0526178 0.00124992 0.315157 
-0.353207 -0.402615 0.0793914 
-0.0907024 0.191333 -0.530501 
0.188123 0.301817 -0.00724942 
0.072752 0.0555357 0.269118 
0.3084 0.240785 -0.0262615 
0.038026 0.0179202 -0.183296 
0.164231 0.0609706 0.385897 
0.297836 0.219768 -0.0238235 
0.347591 0.00909906 0.00352019 
0.280713 -0.0413833 0.192789 
-0.4004 -0.608038 0.194315 
0.141337 -0.0277639 0.464267 
0.240732 0.0148024 0.0715868 
0.239615 0.352682 -0.0834903 
-0.220909 -0.274515 0.0877599 
0.251693 0.121254 -0.0775286 
-0.369527 -0.586973 0.209613 
0.1065 0.255619 0.00262614 
-0.377833 -0.453589 0.0278426 
0.263037 0.137206 -0.0396911 
-0.123196 -0.293799 -0.0061135 
-0.359495 -0.487485 0.0390782 
-0.16373 0.263393 -0.215315 
0.18895 0.25652 -0.000935391 
0.285626 -0.00437087 0.185653 
0.162789 0.0525761 -0.112644 
0.105994 0.184451 0.0373231 
0.192366 0.035039 -0.0395482 
-0.0341091 0.177485 0.043911 
0.299111 0.0923781 -0.021237 
-0.0516742 0.141959 -0.431955 
-0.17024 0.228526 -0.640811 
0.299757 0.363874 -0.0956984 
0.272965 -0.0438822 0.671151 
-0.28546 -0.432445 0.0304285 
-0.0300187 0.108774 -0.000632094 
-0.0071096 0.147649 -0.382362 
0.124011 0.0672979 -0.137518 
-0.0674386 -0.105561 0.0819688 
0.157639 0.174158 0.253452 
-0.283244 -0.438075 0.140679 
0.309029 -0.0208105 0.209292 
-0.0781047 -0.234247 -0.0441224 
0.17204 0.0639227 0.0158768 
-0.517651 -0.573078 -0.00443924 
-0.259532 0.36617 -0.498272 
-0.0719125 0.010212 -0.0514734 
-0.330105 -0.44003 0.0146618 
0.408944 -0.157834 0.505043 
-0.0899541 0.181132 -0.0383871 
0.323046 -0.0414059 -0.00819713 
-0.222667 -0.168915 0.0124876 
0.17433 0.0399623 -0.0223996 
-0.0393113 0.090057 -0.0259941 
0.242319 -0.0951789 0.667371 
0.0659316 0.193872 -0.0599791 
-0.227336 0.415927 -0.510604 
-0.0763471 -0.206655 0.0537737 
0.128397 0.109489 -0.176596 
-0.369482 -0.456057 0.0842742 
-0.284193 -0.516472 0.220735 
-0.0691965 0.143355 0.0219574 
0.330044 0.02058 -0.0882466 
0.0231023 0.110484 0.147707 
0.217975 -0.0785653 0.159007 
0.304795 -0.103196 0.294972 
0.23909 0.00981247 -0.19951 
-0.0519694 -0.0476429 0.0306576 
0.333504 0.313314 -0.0325903 
-0.326851 -0.327654 0.0699794 
0.105103 0.243547 -0.0657196 
0.090105 0.0156075 0.33017 
0.254847 0.000993551 0.136651 
-0.103206 -0.2787 -0.00599231 
0.25111 0.27312 -0.129427 
0.213438 0.159153 0.342332 
-0.165909 -0.193794 0.0870022 
-0.343266 0.209466 -0.427331 
-0.160487 0.11458 -0.545927 
0.216677 0.0133333 0.543247 
0.135368 0.209221 0.0286753 
-0.181424 -0.344253 0.0354026 
0.197133 0.0255003 -0.280958 
0.432145 -0.101132 0.504407 
-0.102543 0.336832 -0.262155 
0.0630924 -0.113232 -0.0406678 
0.18528 0.0571867 0.460098 
-0.0905489 -0.0168467 0.0382201 
0.0386039 0.0163091 0.28094 
0.27434 -0.12947 0.288318 
-0.267928 0.249361 -0.384092 
0.0125636 0.128708 0.15301 
-0.137212 -0.0435459 -0.00782675 
-0.425922 -0.515318 0.0759199 
0.00538214 0.134428 -0.0110346 
-0.347006 -0.371805 0.0626945 
0.075349 0.156872 0.0546187 
-0.00598125 0.134538 -0.340883 
0.117897 0.102414 -0.121465 
-0.154201 -0.240937 -0.0543687 
0.128962 0.278188 0.0022414 
0.280009 0.3693 -0.0886813 
0.243986 0.318097 -0.0120355 
-0.327962 0.235663 -0.453804 
0.441022 -0.106606 0.523925 
0.0746349 0.12882 -0.2625 
0.041123 0.0486106 -0.201477 
-0.0225478 0.042383 0.172579 
-0.122004 0.352667 -0.26778 
-0.0708097 0.110631 -0.425768 
-0.297559 0.174838 -0.338885 
-0.319138 0.204624 -0.390455 
0.10731 0.115033 0.298697 
-0.045727 0.0900058 -0.353136 
0.379781 -0.079074 0.405571 
0.0863773 0.0517818 0.291485 
0.0774643 0.238327 0.0792911 
-0.230756 0.296386 -0.339036 
-0.295827 -0.292549 0.0667179 
0.0190976 0.130388 0.0142868 
0.0363602 -0.00195687 0.297213 
0.0240118 0.229089 0.0686346 
0.182777 -0.0784265 0.570789 
0.190981 0.0102875 0.474662 
0.140833 0.0897721 -0.140342 
0.0110561 0.0239939 0.236321 
-0.128182 0.319297 -0.228574 
0.252383 0.032995 0.530562 
0.38117 0.0101984 -0.0130248 
-0.173453 -0.329925 -0.0129359 
-0.00612729 0.198188 -0.434702 
-0.00284428 -0.0229079 0.0546227 
-0.024667 0.266734 -0.0374631 
-0.472514 -0.507964 -0.0248599 
-0.0597115 -0.20315 -0.0618172 
-0.213104 0.298771 -0.317021 
0.171083 0.25675 -0.114084 
0.0170002 0.0448175 -0.251027 
0.391984 -0.145015 0.466783 
-0.121297 0.189504 -0.126197 
-0.366877 0.34042 -0.571268 
0.258244 0.335091 -0.0732073 
-0.54192 -0.609943 0.013195 
0.24662 -0.0359081 0.595441 
-0.0586052 0.061362 -0.364697 
0.164646 0.111496 0.379802 
-0.149842 0.267768 -0.201015 
0.169946 0.303456 -0.070573 
0.32662 -0.00150598 0.210724 
0.271999 0.0504855 0.0929488 
-0.239319 0.398201 -0.463451 
0.119485 0.198354 -0.0284828 
0.0823399 0.0213995 -0.131331 
-0.126909 -0.291868 0.031078 
0.127834 0.266851 -0.0674969 
0.209743 0.0748365 -0.0940455 
-0.328831 -0.455325 0.0689577 
-0.0502824 0.140666 0.0520792 
0.328379 0.0202965 -0.131205 
-0.202737 0.160522 -0.188659 
-0.132244 0.239514 -0.631989 
-0.12463 -0.0858002 0.0766247 
-0.256616 -0.278319 0.0851834 
0.244677 -0.00650274 0.563669 
0.266217 -0.0325013 0.162087 
-0.0297119 -0.044871 0.0462844 
0.220592 0.141933 0.415312 
0.146867 0.207159 0.127254 
0.186625 0.434078 -0.113464 
0.0492275 0.154268 -0.072162 
-0.0139941 -0.0530577 -0.0970289 
-0.463239 -0.522178 0.0860638 
-0.482559 -0.508307 0.100251 
-0.168061 -0.157239 -0.0431259 
-0.173886 0.386761 -0.409348 
-0.18296 0.161457 -0.617778 
-0.186366 0.166667 -0.17002 
0.00283012 -0.0255317 -0.100638 
0.23777 -0.073924 0.619305 
0.0414979 0.199744 -0.00594523 
-0.411687 0.235054 -0.542273 
-0.545623 -0.575474 -0.0364267 
-0.0385508 -0.0234414 -0.0321015 
-0.0755319 0.191803 -0.512307 
0.333081 -0.0404985 -0.054599 
0.11189 -0.00977829 -0.103557 
-0.0446936 0.310209 -0.121579 
0.323094 0.109095 0.576504 
-0.354135 -0.597567 0.229075 
-0.082731 -0.173088 -0.0756111 
-0.0193686 0.15864 -0.408778 
0.290135 -0.059721 0.677983 
-0.437781 -0.601475 0.129079 
-0.230711 0.195368 -0.690037 
0.321095 0.251896 -0.0506503 
0.0517096 -0.000299817 -0.164853 
0.00908473 0.162519 0.0730542 
0.169143 0.00556668 0.479676 
0.108834 0.08397 0.288932 
0.249557 0.144152 0.405725 
-0.108939 0.295018 -0.224897 
0.00623138 0.290696 0.026082 
-0.0055152 0.0986945 0.0582288 
0.410098 -0.196658 0.559917 
0.211433 0.322882 -0.0143127 
-0.205599 -0.305963 -0.0357776 
0.298272 -0.0243781 0.653256 
-0.217278 0.332382 -0.35621 
-0.0356652 -0.0214831 0.0816573 
-0.138278 0.196721 -0.595204 
0.370287 -0.0158865 -0.0362932 
-0.281698 -0.468238 0.166932 
-0.1112 0.23116 -0.597396 
0.320542 -0.0690441 -0.03026 
0.230176 0.274395 -0.127138 
0.0825065 0.0893504 -0.211447 
-0.0422745 0.210347 -0.46836 
0.09399 0.253133 0.107211 
0.0159216 0.176064 -0.360623 
0.226261 0.0235048 0.0411938 
-0.215431 0.375761 -0.405936 
-0.277012 -0.416625 0.123222 
-0.351958 -0.427711 0.0419993 
0.0309919 0.00649365 -0.198013 
-0.24312 0.136394 -0.669876 
-0.211485 -0.309612 0.0788583 
0.355606 0.00486066 -0.0788843 
0.29146 0.144297 0.470532 
0.0368753 0.0498172 0.0502557 
-0.386217 -0.541044 0.134645 
0.0814854 0.122984 -0.106318 
0.326122 -0.0798539 0.300736 
0.00966768 0.0713111 0.031108 
0.0512962 0.207332 0.0790456 
0.231444 0.131247 0.442184 
0.286321 0.306759 -0.108109 
-0.148498 -0.104469 0.0722966 
0.157197 0.277832 -0.000233263 
-0.0617498 -0.239879 -0.0123515 
0.178882 -0.0374139 0.0634461 
-0.0299285 0.171252 -0.434968 
0.141562 -0.0437288 0.479995 
0.313239 -0.0236155 0.701529 
-0.152272 0.192546 -0.139623 
-0.389654 -0.374928 -0.0658386 
0.0195117 0.16594 -0.0162476 
0.273998 0.0166236 0.115934 
0.0477546 0.224921 0.0553447 
-0.0699284 0.305961 -0.186083 
0.293072 0.120339 0.488267 
0.0273003 -0.145398 0.00308467 
0.00105489 0.131329 0.134244 
-0.333293 -0.553579 0.215461 
-0.16513 0.253989 -0.661656 
-0.00213317 0.00207966 -0.233003 
0.226931 0.174617 0.344723 
-0.299484 -0.472048 0.149246 
-0.135115 -0.133704 0.0850867 
0.119488 0.221261 0.0270813 
0.00873277 0.237719 -0.086043 
0.133643 -0.00930825 0.00242158 
0.0739862 0.188327 0.179108 
-0.0953894 -0.0587031 0.0806915 
0.289701 -0.0309629 0.221876 
-0.175179 0.126555 -0.575727 
-0.100598 0.322182 -0.201004 
0.110532 0.0806098 0.0556387 
0.0930123 0.198389 0.0420893 
-0.356977 0.327255 -0.544889 
-0.420215 0.241965 -0.571553 
0.199118 0.31073 -0.0537626 
-0.0908119 -0.265161 0.00786375 
0.0558216 0.0621247 -0.108152 
0.0394124 0.155878 0.0456331 
0.385244 -0.00336381 -0.0325338 
-0.495387 -0.416929 0.139113 
0.0696178 0.111227 0.127508 
0.237333 0.160629 0.406743 
0.193896 0.275636 -0.0274905 
-0.387902 -0.387061 0.091082 
-0.394526 -0.450345 0.0170794 
0.238865 0.212647 0.0227505 
0.257656 0.0700411 0.497096 
0.348461 -0.0109787 -0.0695072 
0.229489 -0.074004 0.174146 
0.101056 0.0658743 -0.121774 
-0.0867838 0.225755 -0.537486 
0.327243 -0.0602037 0.280317 
-0.370944 0.271627 -0.548064 
0.247535 -0.0317635 -0.171707 
0.0908299 0.229707 0.00426982 
0.264804 -0.0356687 0.652326 
0.249581 0.0564823 -0.285288 
-0.0870834 0.0970981 -0.416143 
-0.340876 -0.539868 0.177465 
0.268577 0.0401317 -0.185883 
0.195793 -0.0596736 0.0892024 
0.00242754 0.126024 -0.322182 
-0.368855 0.316648 -0.587263 
-0.366434 -0.378244 -0.0331803 
-0.434913 -0.528541 0.0464634 
0.122438 -0.0361768 0.43099 
0.157291 0.176574 0.295239 
-0.0322295 -0.0909697 0.0753962 
-0.441692 -0.414973 -0.0960003 
0.275538 0.175426 -0.0941811 
0.26934 -0.0674945 0.65607 
-0.249255 0.29086 -0.402417 
-0.228461 0.162447 -0.225629 
-0.28118 -0.383659 0.0840308 
0.253962 0.0740041 -0.264984 
-0.211738 -0.250459 -0.0360009 
0.204714 0.0159436 0.019552 
0.034993 0.183882 -0.0157215 
-0.0936953 0.162425 -0.061798 
0.175706 -0.0285478 0.0270522 
-0.293772 -0.292768 0.0145222 
0.0718089 0.226089 -0.0501032 
-0.139984 0.228003 -0.603399 
0.308958 -0.0697498 0.29234 
0.333072 0.292047 -0.0395722 
-0.133905 -0.20579 -0.0640069 
0.215092 0.0978933 -0.107261 
-0.234331 0.243032 -0.332091 
0.368731 -0.107778 0.392749 
0.378249 -0.173568 0.47606 
0.137116 0.121815 -0.159332 
-0.31724 -0.378769 0.00878929 
0.23018 0.0330935 -0.269853 
-0.0110158 0.102302 -0.316802 
-0.208613 0.228958 -0.283307 
0.0143822 -0.0442224 0.0687268 
-0.118259 0.266348 -0.156715 
0.0778046 0.161274 0.163687 
-0.00753896 -0.146354 0.0411621 
0.316441 0.117339 0.5568 
-0.076715 -0.00732621 -0.0182035 
0.107751 0.161159 0.0563968 
0.0863073 0.0838546 0.259495 
-0.00706493 0.166198 0.0924076 
0.445293 -0.0840766 0.502396 
-0.219999 0.348153 -0.427276 
0.32311 0.126976 0.530568 
-0.0422772 0.000797612 -0.0788439 
-0.463536 -0.453905 -0.0650831 
0.0797951 0.260127 0.069035 
0.287534 0.178088 -0.0728172 
0.26375 -0.0456513 0.200593 
-0.221137 0.135565 -0.635754 
0.0444425 0.142104 0.186392 
0.419386 -0.0588172 0.408281 
-0.405128 -0.648817 0.225857 
0.311261 0.00270731 0.184267 
-0.207333 -0.154744 0.0519643 
-0.0430677 0.0295072 -0.0647651 
0.032578 0.148596 0.163886 
0.0300082 0.00722727 0.265387 
0.329283 -0.0214406 -0.0415883 
-0.347025 0.348512 -0.54914 
0.325256 -0.0549661 0.426422 
-0.321557 0.358058 -0.523669 
-0.332989 -0.351521 -0.022603 
-0.286682 -0.373581 -0.00485293 
0.376048 -0.0232075 0.331757 
-0.434349 -0.411347 -0.0787459 
-0.0890274 0.112851 -0.431027 
-0.206837 -0.364072 0.00807123 
0.483663 -0.0599265 0.516313 
-0.00437318 0.0426635 0.178395 
-0.0236199 0.0565471 -0.297861 
0.0584059 0.141215 -0.270635 
-0.093374 0.0721759 -0.419924 
0.331135 0.074489 0.587778 
0.212229 0.0429265 0.46774 
-0.464524 -0.442611 -0.091937 
-0.377351 -0.420627 -0.00892593 
-0.305872 -0.434883 0.0973815 
0.176961 0.11827 0.339494 
0.182182 0.0522007 -0.000939814 
0.204056 -0.00468003 0.0701719 
-0.0850294 -0.0210146 0.0128824 
-0.504132 -0.586458 0.0407125 
-0.356576 -0.440234 0.0227961 
0.156381 0.148832 0.0486932 
0.220729 -0.124889 0.675319 
0.0725782 0.208493 -0.00956101 
-0.447866 -0.551091 0.0569947 
-0.187337 -0.196398 -0.0394326 
0.174769 0.0744695 0.430186 
0.255961 0.0290173 0.103709 
-0.458895 -0.636074 0.155799 
-0.359329 0.268909 -0.529476 
-0.249855 0.232527 -0.4236 
-0.26823 0.328831 -0.422273 
-0.331613 -0.404414 0.0135069 
-0.0880281 -0.11503 0.0850296 
-0.275011 -0.246192 0.0419962 
0.146475 0.111245 0.30759 
-0.138493 -0.0938405 -0.0403863 
0.128361 0.264394 -0.0388031 
0.2427 -0.0585932 0.156684 
-0.0887207 -0.245268 0.0398274 
-0.406279 -0.417064 -0.049244 
0.218701 -0.0820368 0.622348 
0.212891 0.0601204 -0.0576839 
-0.153813 0.133268 -0.115566 
-0.416939 -0.557487 0.115465 
-0.331179 0.348723 -0.572376 
0.0601964 0.0611194 0.0669982 
0.115193 -0.0400369 -0.0770452 
-0.416971 -0.449711 -0.011746 
-0.390927 0.300909 -0.575031 
0.0759511 0.0346784 -0.117016 
-0.408608 -0.489675 0.0335907 
0.166175 0.314179 -0.00182278 
-0.00939498 0.106301 -0.050556 
-0.493552 -0.472878 -0.080229 
0.0368846 0.0733213 -0.22807 
0.113461 -0.001846 0.379224 
-0.0478264 0.0064427 -0.0436662 
-0.182512 0.227669 -0.655229 
0.179224 0.0167893 -0.0499983 
-0.292506 0.235988 -0.38013 
-0.293819 0.323119 -0.451523 
0.00716293 0.0157796 0.0771415 
0.153441 0.0187736 0.415182 
-0.0250729 -0.0187858 -0.0174199 
-0.12765 0.138489 -0.0865721 
0.189304 -0.107517 0.615178 
-0.226009 -0.22872 0.0825441 
0.0060122 0.205721 0.071821 
0.226991 0.312149 -0.00141101 
-0.186223 -0.314728 0.0662406 
0.0944091 0.0765644 0.314387 
0.124448 0.0947235 -0.165606 
-0.111628 -0.279801 0.0293985 
0.160594 0.196535 0.232853 
0.305498 0.212208 -0.052841 
-0.251456 -0.366008 0.0826799 
-0.316528 -0.325533 0.0277696 
-0.376398 -0.460447 0.0505574 
0.364402 -0.0809403 0.356731 
-0.175775 -0.12584 -0.0199981 
-0.543521 -0.5123 -0.0960787 
-0.124624 0.130963 -0.514158 
-0.317159 0.27261 -0.473963 
-0.0393608 -0.0834948 -0.0906624 
-0.146178 0.371598 -0.35679 
0.227668 0.195071 -0.135709 
-0.0421848 0.146212 0.023867 
0.022585 0.135508 0.0486184 
0.131427 -0.00279183 -0.098122 
-0.19039 -0.17214 0.080491 
0.223799 -0.0187743 -0.216731 
0.00445535 0.246911 0.0232214 
-0.15335 0.202409 -0.182252 
0.0988534 0.147709 -0.242454 
-0.453106 -0.4968 0.093781 
0.430927 -0.111794 0.48647 
-0.0887927 -0.138449 -0.0768607 
-0.042269 0.0523302 -0.335102 
-0.301125 -0.35378 0.000759573 
0.0173698 0.103788 0.0619787 
0.0611196 0.090613 0.254737 
-0.151409 -0.219695 0.0827942 
0.362416 -0.0551288 0.324412 
-0.0333638 -0.0462301 0.00455496 
-0.511364 -0.54112 -0.0343036 
-0.0651528 -0.0289054 0.0805575 
0.212763 -0.0136896 0.527708 
-0.388135 -0.48923 0.0586747 
-0.186656 0.369838 -0.407498 
-0.491788 -0.510424 -0.0460416 
0.130825 -0.0145444 0.437853 
-0.182652 0.151376 -0.590123 
0.204596 0.0503696 0.493897 
0.0503228 0.101961 0.0432665 
-0.364206 -0.54719 0.157019 
0.47859 -0.114701 0.55726 
0.144811 -0.00338362 0.423519 
0.0318399 0.166707 0.0980171 
0.09968 -0.0293063 0.0235884 
0.052466 0.145967 0.1476 
0.230879 0.0287766 -0.225424 
0.209178 0.0261289 -0.255654 
-0.028033 0.123122 -0.38345 
-0.0879188 0.218122 -0.0691346 
-0.400847 -0.626337 0.204588 
0.0519741 0.192755 -0.02231 
0.0440497 0.104678 -0.248391 
-0.273627 -0.341804 0.088734 
-0.382882 -0.417936 0.0795116 
-0.422526 -0.544748 0.0812349 
0.0325673 -0.142021 -0.0384752 
-0.492155 -0.608229 0.0689675 
0.0161589 0.275574 -0.0411192 
0.206533 0.0226904 0.520568 
0.158898 -0.0461407 0.0206579 
-0.198328 -0.253244 0.0869797 
0.0815284 0.195514 0.131163 
0.229705 -0.0398696 0.143627 
-0.0334383 -0.0398657 0.0796068 
-0.137423 0.116485 -0.501501 
-0.222619 0.176182 -0.664068 
-0.110672 0.251965 -0.180181 
0.007105 0.104255 -0.295159 
-0.273428 0.288475 -0.431175 
0.253179 -0.0330546 0.633619 
0.307268 -0.0127532 -0.119394 
-0.140764 -0.257532 0.0675174 
-0.051491 0.178149 -0.442344 
-0.261796 -0.360748 0.0648901 
0.146548 0.257762 -0.0959826 
0.189095 0.191547 0.308288 
0.170299 0.210097 0.0633546 
-0.180465 0.237603 -0.254839 
0.277461 0.0477421 0.547092 
-0.0571225 0.20166 -0.475834 
0.192801 -0.0223904 0.0709024 
0.214627 -0.0431891 0.099439 
0.128351 0.202195 0.166496 
0.123376 0.245548 -0.00410602 
-0.299579 0.266681 -0.444129 
0.199484 0.289415 0.015628 
-0.0110372 0.0378352 -0.0859356 
0.44603 -0.182677 0.585634 
0.244944 0.0325786 -0.289646 
-0.281216 -0.415265 0.0649667 
-0.204321 0.219183 -0.267936 
-0.308572 -0.406811 0.00370341 
-0.337922 -0.511892 0.148209 
0.347881 -0.129737 0.407679 
-0.140352 0.213562 -0.614842 
0.0522645 0.0435934 0.276474 
0.230469 -0.0613189 0.596532 
-0.315092 -0.459149 0.0459761 
-0.296119 -0.32618 0.0823574 
0.401942 -0.0848488 0.443402 
0.146081 -0.0132941 -0.0196026 
0.166849 0.440719 -0.105606 
-0.14047 -0.1321 -0.0550699 
-0.220009 0.210569 -0.707544 
0.271101 0.195862 -0.0071462 
-0.533495 -0.545568 -0.0443728 
-0.226252 0.135933 -0.203809 
-0.257564 0.427548 -0.529606 
0.0718103 0.0627445 -0.198168 
0.0799972 -0.0294573 0.383763 
0.43148 -0.0421888 0.42977 
0.223602 0.0374835 0.0208516 
0.189345 0.200492 -0.134245 
0.219331 0.239867 -0.132736 
-0.147706 0.309636 -0.241055 
-0.333752 -0.465152 0.0315263 
-0.507776 -0.559642 0.00441114 
0.375355 -0.00276134 0.291978 
-0.31629 -0.423151 0.0851979 
0.273391 0.0624675 -0.217308 
0.0458346 0.099133 -0.0956187 
0.284174 0.270522 0.00566068 
0.162475 -0.0318646 0.497889 
-0.401806 -0.52835 0.0645169 
0.153707 0.315563 -0.0462845 
-0.256304 0.153929 -0.69868 
-0.00553279 0.128973 0.0223219 
-0.286485 -0.495809 0.00385711 
-0.443922 -0.350556 0.125081 
-0.46006 -0.620043 0.135476 
0.21193 0.0751084 -0.259971 
-0.165507 0.0988241 -0.532603 
-0.297558 -0.431763 0.0641621 
-0.33458 -0.386912 0.0229966 
-0.121064 -0.115137 -0.0608832 
0.213061 -0.0554786 0.132395 
0.0290172 0.16667 -0.0665215 
0.304621 -0.043437 -0.0655653 
0.249103 -0.000970613 -0.312071 
0.00481006 0.14652 0.0104346 
0.0394426 0.1361 -0.313106 
0.235562 -0.0154772 0.127123 
0.0231119 -0.0585235 -0.104532 
-0.0247592 0.152079 -0.382145 
-0.2874 -0.491461 0.199008 
0.289644 0.180732 -0.0483239 
0.377713 -0.0412312 0.356593 
-0.0229378 0.0692876 0.0622361 
0.218352 0.140932 0.0168538 
-0.179343 0.301994 -0.324084 
0.395036 -0.159663 0.486538 
0.332344 -0.0931784 0.324245 
0.43266 -0.149654 0.530857 
-0.109009 0.139268 -0.0348152 
-0.174711 -0.208031 -0.0476704 
-0.0875275 -0.112004 -0.0776034 
-0.186508 0.250136 -0.684184 
0.373086 -0.201641 0.496179 
-0.0979517 -0.00700073 0.0539272 
0.202222 8.59321e-05 0.033942 
0.132722 0.165233 0.0532336 
-0.12954 -0.302857 0.0150989 
-0.25522 -0.460483 0.19593 
0.221273 0.00137773 0.088339 
0.262299 0.244297 0.0145957 
-0.169861 0.101127 -0.0884533 
-0.0149193 -0.0367297 0.0527143 
0.136563 0.0724954 0.337406 
-0.198772 0.141386 -0.620089 
0.275609 0.0261562 -0.305891 
-0.465623 -0.555636 0.0784231 
-0.165347 0.199096 -0.605932 
-0.106602 0.346325 -0.27773 
0.0344805 0.0860239 -0.243405 
-0.183269 0.291983 -0.440149 
-0.498163 -0.544807 -0.00151372 
-0.0569593 -0.0886846 -0.0871873 
-0.0134867 -0.120066 0.056953 
0.299849 -0.0036602 0.203856 
-0.427844 -0.380417 0.114039 
0.162503 0.162127 0.273006 
0.0559076 0.203422 -0.0408815 
-0.185263 -0.351208 0.0191605 
0.0847836 0.176672 -0.0421548 
0.238453 0.0638061 0.0104364 
0.224319 0.132942 0.385163 
0.194825 0.333851 -0.00849617 
-0.328613 -0.452032 0.0891061 
0.434604 0.24695 -0.0217376 
0.050689 0.244178 0.0797877 
0.382605 -0.0635621 0.362515 
-0.263052 0.287478 -0.41648 
0.187494 0.0767186 0.39863 
-0.0370553 0.219856 -0.0494995 
0.261398 0.108008 0.460595 
0.299652 0.296846 -0.100972 
0.0218012 0.170195 0.00573904 
0.26007 0.181762 -0.00253132 
0.302585 -0.129719 0.319118 
-0.0495915 0.202543 -0.492157 
0.178826 0.151112 -0.132476 
-0.393253 0.271392 -0.577651 
-0.256691 -0.227488 0.0154035 
0.111949 0.476638 -0.112063 
0.127594 0.192825 0.238907 
0.310056 -0.0262083 0.444039 
-0.0669128 -0.141489 0.0739041 
0.246728 -0.0346854 0.164166 
-0.152096 -0.287852 0.0601966 
0.0108659 -0.0968933 -0.0958372 
0.0632886 0.160301 0.145936 
0.262324 -0.090289 0.218913 
0.199919 0.0501351 0.00084382 
0.351191 -0.00915573 -0.0183069 
0.217619 -0.0965009 0.159064 
-0.133497 0.335702 -0.256343 
-0.303269 -0.437625 0.115671 
0.0943049 -0.0777878 -0.0200094 
0.119254 -0.0103811 0.0158806 
-0.218383 -0.249101 0.0884086 
0.219313 0.412526 -0.113846 
0.235083 -0.0151915 -0.00656129 
0.204997 0.330546 -0.0619037 
0.070372 0.220829 -0.0293921 
-0.157252 -0.0742928 -0.0042268 
-0.0290112 0.0339354 -0.301449 
-0.155365 -0.300911 -0.0291987 
-0.14742 -0.222625 -0.0577696 
0.422732 -0.17068 0.560565 
0.249705 0.361967 -0.0478863 
-0.137829 0.102219 -0.0573012 
0.357141 -0.0227894 0.306076 
-0.25253 0.164988 -0.274873 
-0.215713 0.268891 -0.293633 
-0.162447 0.181846 -0.586847 
-0.0788708 0.256558 -0.0935422 
0.217707 -0.112292 0.174821 
-0.357171 -0.472454 0.0280385 
-0.19301 0.228923 -0.669599 
-0.0839656 -0.0100214 -0.0506668 
0.193291 -0.0113799 0.52846 
0.26964 -0.0942285 0.704329 
-0.116992 0.173263 -0.0718856 
-0.251013 0.257707 -0.334379 
-0.0936317 0.21752 -0.561655 
-0.205662 0.21805 -0.236923 
-0.359061 0.314981 -0.572455 
0.232696 0.00374598 0.537172 
-0.254991 0.32367 -0.446058 
-0.293599 0.331774 -0.505085 
-0.0330577 -0.207798 0.0115139 
0.0564526 0.222343 0.116409 
-0.166109 -0.253972 -0.0519453 
0.184504 0.0727517 0.445011 
0.289627 0.000215641 -0.116569 
-0.242201 0.267197 -0.367387 
0.0160565 0.0697731 0.0579478 
0.0360056 0.0561585 0.217131 
-0.197417 0.164225 -0.206179 
0.305452 -0.00844449 -0.0865508 
-0.276141 -0.25344 0.0257728 
0.0880423 0.239974 -0.0270298 
-0.117287 0.0878427 -0.453976 
0.464531 -0.0705434 0.511382 
-0.111817 -0.271104 -0.0337048 
0.216663 0.00121342 -0.231018 
-0.215501 0.221405 -0.445573 
0.167144 0.230242 0.0189404 
-0.191459 0.169613 -0.636348 
0.407512 -0.15453 0.522442 
0.0836565 0.197994 -0.0790146 
-0.323687 0.212699 -0.421403 
-0.203531 0.187278 -0.211155 
0.195104 -0.110201 0.141485 
0.211924 -0.0715236 0.143869 
0.2949 0.0280682 0.639531 
-0.485571 -0.492424 -0.0594428 
0.232571 -0.093532 0.652626 
0.182222 0.290133 0.0197898 
-0.200384 -0.142169 0.00239484 
0.390147 -0.199814 0.528712 
0.282323 -0.0262684 0.670832 
0.0342563 -0.00263373 -0.107816 
-0.00882099 0.0732011 0.16396 
-0.180557 0.114465 -0.122488 
-0.263672 0.238685 -0.33833 
0.0005989 0.0754838 -0.07822 
-0.192657 0.358671 -0.356469 
0.0342254 0.174388 -0.360576 
0.233927 0.0830263 0.452086 
0.103592 -0.0313544 0.416727 
0.0917889 0.0751287 -0.159271 
0.0586048 0.153291 -0.308256 
-0.393781 -0.464485 0.0418484 
-0.414323 -0.639172 0.202853 
0.22122 0.0749332 -0.0266358 
-0.432041 -0.559751 0.0870129 
0.40717 -0.173063 0.537635 
-0.0771189 0.130132 -0.00832323 
0.0958604 0.162688 0.18577 
0.0682772 0.0332817 -0.174172 
0.121583 -0.0370988 -0.00639192 
0.44643 -0.113446 0.539274 
-0.189525 0.224028 -0.21821 
0.361124 0.288811 -0.049261 
0.0632371 -0.0169086 -0.110692 
0.315655 -0.133095 0.341887 
-0.50245 -0.454724 -0.114289 
0.262265 -0.131533 0.723044 
-0.420018 -0.525052 0.0594455 
0.151658 0.0401344 0.391558 
-0.367047 -0.493738 0.102454 
-0.0349692 0.157569 -0.400675 
0.171013 0.250087 -0.00999642 
-0.00223554 0.152099 0.111767 
0.299384 -0.107063 0.312212 
0.068847 -0.0535612 0.0352274 
0.21404 0.17819 0.0286614 
-0.167032 -0.119046 0.0675797 
0.129366 0.234101 0.168162 
-0.206926 0.418131 -0.469735 
-0.0240012 0.024678 0.188598 
0.182944 0.040709 -0.253494 
0.0457431 -0.122668 0.002217 
-0.391124 -0.527644 0.100247 
0.0243761 0.0884989 0.201959 
-0.2156 -0.334605 0.0735093 
-0.0231686 0.0944106 0.0160072 
0.267938 0.29456 0.00955592 
-0.126193 0.228737 -0.587389 
-0.0799131 -0.191075 0.0641362 
-0.138862 0.300136 -0.269379 
0.0836494 -0.0893068 -0.0301271 
0.0308145 0.0730032 -0.259984 
-0.107622 0.19217 -0.525916 
-0.0233962 0.133154 0.0970228 
0.406006 0.264044 -0.0290937 
0.183178 0.00797556 -0.00211981 
-0.0868735 0.0649102 -0.404994 
0.101697 0.173125 0.23156 
-0.291151 0.268523 -0.401997 
-0.0868667 0.285734 -0.137039 
-0.137286 0.15845 -0.0910503 
0.185029 0.16811 0.0412346 
0.131148 0.110346 0.335864 
-0.102218 0.341839 -0.230249 
-0.208332 0.378167 -0.444753 
0.124962 0.179016 0.205677 
0.0763751 0.122079 0.204686 
0.155865 0.142467 0.285684 
0.259532 0.151158 -0.0136824 
0.127679 0.044928 0.354589 
0.0636177 0.245904 0.053026 
0.248066 -0.0389747 0.471356 
-0.108952 0.19365 -0.555421 
0.0638019 0.1171 0.159539 
-0.5219 -0.598161 0.0313868 
0.0774288 0.171026 0.202935 
0.264844 0.215662 -0.126299 
0.176462 -0.0207039 0.483556 
-0.0680829 -0.0367263 -0.000789832 
-0.280217 0.171342 -0.303086 
-0.0298612 0.0775287 -0.0485715 
0.222004 -0.0181819 -0.295372 
-0.122348 0.284458 -0.180435 
-0.0319135 0.125551 0.0584973 
-0.276521 0.395188 -0.552016 
0.263052 -0.0225336 0.146178 
0.347394 -0.0709385 -0.0297396 
-0.0760895 0.181292 -0.019687 
0.0177239 -0.126059 -0.0767669 
-0.137559 -0.277853 -0.0418332 
0.116269 -0.0607889 0.461884 
0.0421269 0.122917 0.0614127 
0.227953 -0.124183 0.206895 
0.256244 0.0337344 -0.306944 
0.437048 0.22185 -0.0336292 
0.0283124 -0.015238 -0.182417 
0.222339 0.340273 -0.0437709 
0.160726 0.106008 0.0397732 
-0.190633 0.376238 -0.377965 
-0.23283 0.376495 -0.427651 
0.298077 0.101043 0.515831 
-0.0491714 0.244413 -0.041631 
-0.191385 0.315771 -0.354667 
0.199038 0.0443862 -0.067369 
-0.371187 -0.623729 0.25097 
-0.155399 0.122495 -0.531103 
-0.548827 -0.546607 -0.0621796 
0.316309 -0.0533232 0.256967 
-0.1628 0.194551 -0.623809 
-0.0837842 0.157001 -0.0429979 
-0.0907616 0.129063 -0.446075 
0.0851522 0.079652 -0.117232 
-0.0591085 0.320335 -0.187641 
0.473264 0.195867 -0.0249155 
-0.376053 -0.495865 0.0807748 
-0.360574 -0.330693 0.0866997 
-0.213752 -0.372426 0.0345866 
0.280224 -0.0542973 0.659183 
-0.310451 -0.446422 0.0624896 
0.133482 0.197774 -0.114022 
-0.120946 -0.0329628 -0.0248547 
0.0420285 0.0641044 0.246881 
-0.211942 -0.219375 -0.0286628 
0.114269 0.17189 -9.11567e-05 
-0.17757 0.149818 -0.164669 
-0.2646 0.197444 -0.329753 
0.217189 0.289742 -0.0273247 
0.271507 -0.0959315 0.687163 
0.137721 0.21247 0.0460609 
-0.0433013 0.311684 -0.157657 
-0.176255 0.17788 -0.601539 
-0.289658 -0.349207 0.016515 
0.271792 0.121497 -0.0195411 
-0.30717 0.390067 -0.56881 
-0.413708 -0.325761 0.121313 
0.177802 0.3158 -0.0555286 
0.246649 0.188336 0.0112877 
-0.115461 0.165009 -0.534943 
0.304751 0.341458 -0.111747 
-0.185299 0.241237 -0.225933 
0.13748 0.0452743 -0.118257 
0.371549 0.0288334 -0.0152782 
0.111387 -0.00762724 0.404146 
0.028861 0.152749 -0.343631 
-0.186606 0.260695 -0.245314 
0.220978 0.291287 -0.00242 
-0.125079 0.223378 -0.125077 
0.354463 0.0108313 -0.0477942 
0.406915 -0.047465 0.377318 
-0.034421 0.131756 0.0820158 
-0.317264 -0.344713 0.0176089 
-0.389095 -0.643428 0.239412 
-0.05163 0.158488 -0.42226 
-0.236927 -0.286421 0.0880812 
-0.0123796 -0.146939 -0.078576 
-0.200249 -0.353979 0.0480037 
-0.189058 0.191473 -0.46544 
0.069903 0.141626 0.0604604 
0.416321 -0.00160588 -0.038697 
0.126774 0.100828 -0.144805 
0.0980659 -0.0078021 0.385622 
-0.191683 0.32955 -0.319808 
0.142393 0.302001 -0.0440739 
-0.0682771 0.341969 -0.200474 
-0.328901 -0.483611 0.126116 
-0.362419 -0.392123 -0.0238912 
0.188156 0.053528 -0.0985003 
-0.00576005 -0.1826 -0.00390099 
0.204424 0.318151 0.0157572 
-0.0233701 -0.0735198 0.075657 
0.0414989 0.0629933 0.0702701 
0.239535 0.102792 -0.0765481 
0.301166 -0.0845302 0.716096 
-0.378565 -0.392849 -0.0309051 
0.158778 0.103363 -0.117751 
0.23111 0.0318483 0.0665409 
-0.263761 0.302917 -0.391665 
-0.260083 -0.25956 0.0790207 
0.203066 0.129379 -0.128158 
0.0277115 0.0727651 0.190525 
-0.285858 0.408826 -0.55857 
-0.22256 -0.234053 -0.0250489 
-0.0952951 0.354659 -0.245517 
0.0927117 0.127956 -0.215963 
0.160612 0.20991 0.0172934 
-0.105214 -0.00772894 -0.0219831 
-0.112545 0.00181891 0.0124486 
-0.229025 0.424438 -0.491941 
0.0530099 0.0162297 -0.160863 
-0.0396071 -0.0109221 -0.0480591 
-0.246758 0.308911 -0.372937 
0.107369 0.13801 -0.231343 
-0.167415 0.231329 -0.19199 
-0.150835 -0.128001 0.0819444 
0.353648 0.0455763 0.650315 
-0.00565421 0.188811 0.0730837 
0.0187653 -0.109361 -0.0868064 
0.267175 0.156978 -0.0899816 
-0.287568 0.288451 -0.449691 
0.12025 0.21842 -0.0159989 
-0.256498 0.344215 -0.470436 
0.191667 -0.0886723 0.582759 
0.447492 -0.130584 0.559359 
-0.248716 -0.213233 0.0551815 
-0.141513 -0.0491938 0.0357723 
0.126577 0.0362264 0.393473 
0.238481 -0.0277635 0.576492 
-0.287164 0.2218 -0.361449 
-0.321331 -0.515403 0.184399 
-0.088933 0.240069 -0.138944 
0.185309 0.108963 0.026732 
-0.246187 -0.386273 0.0155217 
-0.00116295 -0.167531 0.0146842 
-0.100761 0.161381 -0.512826 
-0.304106 -0.357819 0.087751 
0.102993 0.06247 -0.15865 
0.124763 0.23094 -0.0446987 
-0.232438 -0.326543 -0.0258005 
0.0604043 0.0352983 0.295286 
0.33899 0.314377 -0.0828628 
-0.123038 -0.0165639 0.0112571 
0.286834 -0.00982106 0.62258 
0.322959 -0.0143021 -0.056648 
0.405447 -0.0203873 -0.0461345 
0.272079 -0.0340919 0.628493 
0.0855481 0.113472 0.0641324 
0.115414 0.127806 -0.189684 
0.282911 -0.064128 0.70088 
-0.0235382 0.08878 0.130264 
0.22135 0.00455685 -0.247841 
0.292755 -0.00740804 0.170652 
0.353428 -0.114845 0.378325 
0.128877 0.0136925 0.38576 
0.00621538 0.0959758 0.0344494 
0.0128909 0.177269 -0.389404 
-0.00664353 0.114787 0.103326 
-0.0734239 0.143526 -0.46085 
-0.451821 -0.517292 0.022862 
0.31543 0.286295 -0.083398 
0.211864 -0.0400481 0.5768 
-0.258788 -0.320187 -0.0193397 
-0.0245673 0.0314562 0.0755106 
0.162321 0.0989574 0.34164 
-0.00951162 0.156577 -0.36834 
0.322683 -0.0250592 0.262228 
0.162689 0.0847271 0.403744 
0.099318 -0.0208343 -0.10477 
0.104071 0.229695 -0.0751395 
0.20765 0.0111695 -0.289517 
0.234064 0.11196 -0.0175607 
0.347722 -0.0844718 0.364692 
-0.00305041 0.221968 0.0428171 
0.222973 0.00419558 -0.286251 
0.0923015 0.154777 0.0573117 
-0.0807074 0.149681 -0.000772927 
-0.293379 -0.278133 0.0453315 
-0.344953 -0.473667 0.068383 
0.0175735 0.0994987 0.183222 
-0.0303967 0.135976 -0.399322 
0.0412633 -0.127205 -0.0583026 
0.252657 0.205035 -0.130523 
0.325773 -0.0117432 0.249217 
0.304098 -0.011406 0.68923 
-0.0334485 -0.118094 -0.0896306 
-0.103023 -0.123406 0.0850641 
0.260584 -0.000980215 0.118021 
-0.0043161 0.0386038 0.0747509 
0.100506 0.254835 -0.0446019 
-0.37701 -0.531208 0.122001 
-0.286594 0.312232 -0.432697 
-0.146316 -0.0687505 0.0525528 
0.395933 0.011767 -0.0207287 
0.197221 0.274812 0.00792934 
0.331225 -0.0986419 0.354079 
0.166361 -0.0705635 0.528571 
0.196995 0.0945228 0.00959657 
0.0351963 0.0752626 0.228205 
-0.538418 -0.572347 -0.0188701 
0.187355 0.419499 -0.0904107 
-0.117732 -0.0174465 -0.0143676 
-0.00281812 0.047405 0.19426 
-0.00775319 0.187406 -0.401279 
0.100091 0.202646 -0.0916598 
0.218795 0.337751 -0.0134274 
-0.0770686 0.233576 -0.116439 
0.13797 0.155794 0.247877 
-0.0559755 0.138004 0.013453 
-0.0281329 -0.180568 0.0326224 
0.304285 0.0352449 0.14746 
-0.248576 0.33988 -0.455409 
0.0700376 -0.0368334 0.0404996 
0.00220332 0.294257 -0.0793648 
0.280881 0.347996 -0.0141193 
-0.203734 0.306425 -0.360566 
0.158751 0.265289 0.0137143 
-0.208877 -0.321504 -0.0310709 
0.165389 0.262974 -0.0420534 
0.192851 0.181588 -0.138848 
0.189652 0.0114291 0.0314199 
-0.141009 0.209552 -0.585113 
0.25183 -0.119778 0.706347 
0.0104844 0.0664294 0.197779 
0.059281 0.13366 -0.286351 
0.323878 -0.151811 0.373059 
-0.0566791 0.130277 -0.402147 
0.0933845 0.15053 0.24474 
0.439854 -0.157802 0.550116 
0.188482 0.350517 -0.02151 
-0.338921 -0.367115 -0.0239746 
-0.310989 0.234833 -0.406395 
-0.230754 -0.364728 -0.00948113 
0.121025 0.263741 0.00245399 
0.024509 0.0571337 0.0242929 
0.363424 -0.180868 0.46113 
-0.0943217 -0.00652162 -0.0356146 
0.228308 -0.0527518 0.610415 
0.0495897 0.0627126 -0.201966 
-0.158062 0.162396 -0.124908 
0.172046 0.0990659 0.402948 
-0.0127685 0.0719033 0.135034 
0.20464 0.0897642 -0.263108 
0.204486 0.198789 0.0353915 
0.0527634 0.0942527 0.20397 
-0.16975 0.129843 -0.557187 
0.139801 0.027191 0.0228364 
-0.404658 0.262647 -0.563515 
0.284003 0.286077 -0.122595 
0.106691 0.174544 0.165642 
-0.192781 0.271928 -0.26394 
-0.209366 -0.147867 0.0260889 
0.0500329 0.131685 0.160079 
0.303293 0.0121346 -0.110118 
-0.102209 -0.274965 0.0144341 
-0.00327431 0.164895 -0.0717703 
0.269968 -0.00606176 0.137104 
-0.391946 -0.443591 0.064623 
0.460923 -0.11871 0.565978 
0.230774 0.16605 -0.129459 
0.208446 0.351186 -0.014389 
-0.101284 -0.04576 0.0725527 
0.0720908 0.00175413 0.340807 
-0.499358 -0.573678 0.0316557 
0.15212 0.454262 -0.114854 
0.157472 0.261926 -0.00511304 
-0.120173 0.114859 -0.0517555 
0.219999 0.0729053 -0.0503271 
0.142847 0.0712821 0.0392738 
-0.215582 0.205903 -0.270967 
-0.388159 0.252684 -0.54959 
0.0721799 0.0437882 0.306843 
0.36814 -0.0884015 0.398838 
-0.231659 0.402725 -0.501953 
0.392357 -0.0657517 0.407828 
-0.0305786 0.188347 -0.429787 
-0.168728 0.199706 -0.200421 
0.184542 0.0636156 -0.246607 
0.388416 -0.103911 0.44494 
-0.35628 0.286628 -0.541287 
-0.36132 -0.570062 0.199985 
0.0646485 0.0920149 0.222181 
-0.215852 0.394075 -0.471969 
0.264831 -0.000256794 0.151853 
-0.21053 0.188083 -0.656828 
-0.140719 0.17144 -0.105852 
-0.380332 -0.425802 0.0511577 
0.209483 0.155389 -0.170892 
0.206697 0.272644 -0.122045 
0.198729 0.0456093 -0.0251998 
0.151346 -0.0453956 0.494809 
-0.120493 -0.121147 0.0866513 
-0.193377 -0.237702 0.0877605 
-0.0964745 0.292923 -0.206483 
-0.113577 0.12227 -0.471777 
0.380638 0.282143 -0.0382826 
0.0596111 0.153096 0.196882 
-0.306119 0.345012 -0.489529 
-0.306396 -0.375723 0.0380958 
-0.220369 -0.1676 0.0479665 
0.204754 -0.0167039 -0.284451 
0.312544 0.233417 -0.0681537 
0.0228682 0.122142 0.13541 
-0.287796 -0.333503 -0.00614227 
0.339235 -0.00505263 0.259087 
0.150613 0.115348 0.357678 
0.301394 -0.0525167 0.234803 
-0.0387486 0.140117 -0.413804 
-0.308172 0.244504 -0.435723 
-0.43261 -0.619615 0.15687 
-0.367508 -0.398957 0.0479016 
-0.224448 0.187741 -0.26649 
0.191643 -0.0314453 0.0533977 
-0.00113787 0.134244 -0.0314098 
0.0420944 0.117157 -0.263933 
-0.130378 0.255478 -0.209685 
-0.240311 0.306184 -0.407755 
-0.501399 -0.480305 -0.0935511 
-0.0523352 0.168293 0.0253713 
0.219698 0.109651 -0.00315384 
0.431893 -0.137607 0.516712 
-0.370774 -0.442868 0.0390847 
0.0505006 0.166255 0.0344226 
0.129431 0.0915027 0.351319 
-0.344112 0.264218 -0.477491 
-0.0656976 0.208355 -0.077223 
0.300042 -0.0450149 0.253184 
-0.0235267 0.251035 -0.0170036 
0.0144063 -0.113568 0.0415636 
0.0876852 0.046128 0.0586696 
0.104285 0.028777 -0.151867 
0.228212 0.0420922 -0.24063 
0.0148537 0.0732289 -0.257202 
-0.222669 0.284183 -0.316561 
0.334114 -0.128153 0.364121 
-0.291104 -0.40719 0.00237963 
-0.294054 0.22116 -0.393772 
-0.21061 0.191195 -0.681291 
-0.335742 -0.404643 0.0350525 
0.150653 0.114977 -0.153685 
-0.0270617 -0.173938 -0.0676042 
-0.438332 -0.490614 -0.00250649 
0.0282164 -0.0431963 -0.105304 
-0.0640394 0.165174 -0.444609 
-0.380397 0.31557 -0.601943 
-0.141112 0.0930107 -0.501285 
0.375516 -0.0673618 -0.0435335 
-0.371143 -0.471956 0.0819921 
-0.0203745 -0.200076 -0.00376909 
0.240089 -0.073007 0.189859 
0.386672 -0.126525 0.439148 
0.217348 -0.118782 0.656729 
0.0868168 0.161793 -0.0962423 
0.158866 -0.00247376 -0.0632401 
0.151632 0.129043 -0.129232 
-0.000546779 0.0948484 0.160707 
-0.444822 -0.524858 0.0813187 
0.241621 0.241458 -0.134604 
-0.021191 0.111923 0.0230429 
0.249214 -0.141519 0.726483 
0.329099 -0.0140024 -0.0904035 
0.0023122 0.0574042 0.0719079 
0.173676 0.0896902 -0.124011 
0.199553 -0.00340011 -0.273388 
0.32642 -0.0552833 -0.0243459 
0.342256 -0.0433751 0.282301 
-0.109841 -0.178975 0.079025 
-0.26438 -0.303137 0.0874026 
-0.0845447 0.345578 -0.218034 
0.137815 0.467372 -0.127252 
-0.188043 -0.335122 0.0539667 
0.0762137 0.169415 0.0345453 
0.323471 0.331474 -0.103912 
0.28147 0.0545872 -0.191919 
0.0579064 0.0583418 -0.187158 
-0.378775 -0.532862 0.0424898 
0.2671 0.244446 -0.127945 
-0.17666 -0.106504 0.0444455 
-0.359923 -0.390479 0.0615159 
-0.519403 -0.612414 0.0514827 
-0.0156469 0.128303 -0.373169 
0.0255072 0.14285 0.00253647 
0.113247 0.161175 0.0274102 
0.0643121 -0.113056 -0.0237956 
-0.184385 -0.315118 -0.0291309 
0.302104 0.297723 -0.00561993 
-0.0856532 -0.261085 -0.0152632 
-0.370303 -0.365429 -0.05294 
-0.00556825 -0.0853589 0.0654436 
0.206923 -0.0176646 0.0877959 
-0.00226926 0.0759505 -0.00381992 
-0.151551 0.141178 -0.558281 
-0.176354 0.398979 -0.399385 
0.0470432 0.101498 0.188342 
-0.01164 0.0967566 0.0436395 
0.174225 -0.0611545 0.0752093 
0.0976798 -0.0505563 -0.0857519 
0.464869 -0.147743 0.575507 
0.345473 0.0238556 -0.0859937 
-0.410275 -0.602634 0.175584 
0.259363 -0.0186182 -0.152008 
-0.414937 0.279705 -0.614907 
0.23707 0.0992582 -0.0427771 
0.0432621 0.129589 0.0404182 
0.00623052 0.192276 -0.39193 
0.305313 0.349978 -0.021188 
-0.205167 0.231824 -0.687943 
0.020743 -0.125492 0.0310378 
0.227965 0.164578 0.0169262 
-0.275201 -0.25663 0.0582538 
0.416484 0.247292 -0.031792 
0.332701 0.280328 -0.0669932 
0.205629 0.0610936 -0.0798834 
0.0869231 0.0150115 -0.117547 
0.174389 -0.0989358 0.581716 
0.257757 -0.0688863 0.666818 
-0.188911 -0.28595 -0.0406693 
0.0962523 0.0463779 0.310216 
-0.15372 -0.0632664 0.00753372 
0.129258 0.226115 -0.0999854 
-0.153096 0.129611 -0.0910356 
-0.0414064 0.0902283 0.00122585 
0.403005 -0.0602012 -0.055773 
-0.367176 -0.464859 0.0684157 
0.199148 -0.0452919 0.101949 
-0.208898 -0.188864 0.0778024 
-0.512987 -0.523801 0.111823 
0.256836 0.338565 -0.057846 
0.197253 0.17328 0.344666 
0.191889 0.314561 -0.0865491 
-0.167042 -0.219111 0.0874025 
0.00251583 0.0819034 0.0430335 
0.0679571 0.0647412 0.284481 
0.217825 0.176262 0.329638 
0.0404171 0.282859 -0.000691984 
-0.265757 -0.469759 0.188722 
0.291598 -0.143239 0.326334 
0.174417 0.0479452 0.453352 
0.224853 0.124264 -0.113279 
-0.289996 -0.379813 0.0640674 
0.0952375 0.22451 0.15789 
-0.109459 0.354774 -0.258469 
-0.351097 -0.348545 -0.0596888 
-0.459861 -0.432281 0.115955 
0.331572 -0.0593208 0.314153 
-0.260556 -0.414815 0.130385 
-0.32824 -0.337148 0.0462647 
0.0887572 0.0664185 -0.180452 
0.279575 -0.150492 0.310127 
-0.302978 -0.446285 0.0310525 
-0.0636372 0.181049 -0.48647 
-0.382123 -0.513121 0.056085 
-0.0636252 0.039509 -0.0387888 
-0.194617 -0.212876 0.0888423 
-0.344209 -0.422695 0.0853292 
0.44217 -0.162594 0.583469 
0.0249201 0.28151 -0.00314729 
-0.193603 -0.154148 -0.0168427 
0.144998 0.296941 -0.019104 
0.22451 0.0720642 -0.251045 
-0.269552 -0.404724 0.0648566 
0.277875 -0.0798941 0.704123 
0.244426 -0.0127219 -0.198617 
0.313103 0.371984 -0.0667302 
0.267063 0.000886422 0.625912 
0.40613 -0.070766 0.432368 
-0.0027191 0.273405 -0.0215196 
-0.15631 0.375885 -0.340032 
-0.421716 -0.616379 0.177557 
-0.0662812 -0.224038 -0.0457664 
0.30892 0.280112 -0.0165447 
-0.201894 0.160238 -0.623651 
-0.25963 -0.421999 0.0107831 
0.174726 0.230031 0.00519753 
-0.338427 -0.376935 -0.0117423 
-0.27769 -0.406674 0.111106 
0.12973 0.0320556 -0.180773 
-0.237968 -0.346405 0.079226 
0.20793 0.255853 0.031005 
0.46167 -0.0503367 0.47828 
0.22205 0.177799 0.363531 
-0.366655 0.313594 -0.548398 
0.151386 0.0490625 0.4194 
-0.362834 -0.491506 0.0653687 
0.104834 0.0970913 0.269237 
-0.0252101 0.0248698 -0.280665 
-0.0424371 0.0301302 -0.315828 
0.158872 0.248986 -0.108122 
-0.114089 0.149465 -0.049649 
-0.0697791 0.123476 0.00837617 
-0.063334 0.0567434 -0.0209979 
0.0642832 0.18834 0.0254308 
0.0875632 0.118898 -0.236222 
0.216258 0.110463 0.44933 
0.0981381 0.00807519 0.0432082 
-0.370842 0.286253 -0.533719 
0.40521 -0.186718 0.545002 
0.281588 0.0126523 0.13124 
0.274143 -0.0416808 0.211576 
-0.038885 0.32044 -0.131869 
0.353847 -0.145892 0.4306 
-0.0212137 0.0920423 0.104446 
-0.125704 0.267492 -0.632596 
-0.311425 -0.325346 0.0705081 
0.103225 0.227929 0.124033 
-0.0942426 -0.0413493 -0.0573221 
0.119899 0.0539116 -0.129042 
0.392875 -0.0826968 0.428069 
0.202797 0.0637009 0.432756 
0.118744 0.109948 -0.18884 
0.149851 0.230184 0.038304 
-0.133236 0.0775141 -0.471616 
0.0212503 0.161497 -0.362217 
0.195264 0.165989 -0.151055 
-0.0785245 0.244182 -0.551841 
-0.409123 -0.472928 0.0131509 
-0.339839 0.375734 -0.574027 
0.094901 0.120988 0.0904712 
-0.505656 -0.619982 0.0777997 
0.319589 -0.0608892 -0.0478582 
0.318328 -0.0985268 0.309638 
0.0889487 0.0386025 -0.152808 
0.159723 0.212642 0.0951609 
0.112042 -0.0599192 -0.0419595 
0.385694 -0.0770296 0.382497 
-0.284368 -0.280558 0.0125176 
0.139867 0.0780533 -0.11484 
-0.0730678 -0.116316 -0.0813057 
-0.253412 -0.213193 0.0403535 
0.332753 0.00971554 -0.0701985 
0.186899 0.292717 -0.0535538 
0.214141 0.0938539 0.414555 
-0.252115 0.206339 -0.297532 
0.488244 -0.0784241 0.527146 
0.145988 -0.0222677 -0.0518506 
0.0972412 -0.00825219 0.365474 
0.167821 0.123872 -0.129621 
-0.0417938 0.0993179 -0.377926 
0.0177573 0.0257259 -0.102274 
-0.309544 0.344071 -0.53908 
0.0843546 0.251274 -0.0805328 
0.205574 0.0433069 -0.255709 
-0.396911 -0.479718 0.0356298 
0.300975 0.0528016 0.622544 
0.0789509 0.180088 -0.0200039 
0.186135 0.317491 0.00779073 
-0.406415 0.29081 -0.590233 
0.309978 0.368457 -0.0842708 
0.389472 -0.0292871 -0.0230026 
0.307675 0.265625 -0.105662 
-0.26888 -0.390171 0.0907881 
-0.181844 0.190238 -0.180921 
0.288482 0.039751 0.109834 
-0.494002 -0.626291 0.100482 
-0.208519 0.21046 -0.697196 
0.0837796 0.145399 0.168752 
0.0476615 0.158049 0.128028 
-0.136388 0.262421 -0.224967 
0.0899762 -0.0202931 0.0362449 
0.0588876 0.162126 -0.295583 
-0.132752 -0.209511 0.0814252 
0.254295 0.345636 -0.105889 
0.18504 0.161313 0.347653 
0.235004 0.0931037 -0.26601 
0.201409 0.113928 0.376065 
0.112256 0.179557 -0.0220814 
-0.350614 0.211353 -0.45065 
-0.139206 0.273154 -0.65429 
0.225944 0.0833796 -0.0680347 
0.0841637 -0.0700499 0.00735932 
-0.0552469 0.129311 -0.423914 
0.227265 -0.0935414 0.629831 
0.145377 -0.00365823 -0.00579508 
0.319841 -0.0258556 -0.0191119 
0.0407619 0.114686 -0.0887376 
-0.166098 0.217792 -0.651042 
0.16933 -0.0467408 0.0557979 
0.0508775 0.0773595 -0.213642 
-0.399883 -0.578432 0.161678 
0.0535404 0.139377 -0.29942 
-0.112647 -0.0823897 -0.0585256 
-0.15682 -0.121914 -0.0386649 
0.0649387 0.123924 0.174917 
0.204638 -0.0624044 0.58434 
0.25314 0.0634183 -0.298518 
0.236471 0.197606 0.020794 
-0.121359 0.141657 -0.497571 
0.0143214 0.0820014 0.069012 
0.0653053 0.00260772 -0.114716 
-0.0852945 -0.0239428 -0.0569524 
-0.333529 -0.422817 0.0123459 
0.269581 -0.134028 0.274009 
-0.0482013 -0.0222473 0.065762 
-0.108859 -0.0831219 0.0813175 
-0.0837898 0.12885 -0.459712 
-0.106827 0.211944 -0.57181 
0.023303 0.118955 -0.289278 
0.185144 0.274428 -0.013403 
0.226557 0.291393 -0.121783 
0.0450358 0.166755 0.0040317 
0.341262 0.0758985 0.644205 
0.27257 0.153426 0.452491 
0.350748 0.105973 0.583719 
0.0634887 0.258736 -0.0853115 
-0.223283 -0.37608 0.0043516 
-0.252735 0.190951 -0.307247 
0.366128 -0.0452663 -0.0322095 
0.428351 -0.218676 0.605302 
-0.127808 -0.191947 0.0817466 
0.120615 -0.047824 -0.0569423 
0.124999 0.0189069 0.027932 
-0.108055 -0.0238875 -0.0345055 
0.101798 0.195602 0.00667693 
-0.115369 -0.00885624 0.027136 
0.338451 -0.00624233 0.0047534 
0.275304 0.0668908 0.491273 
0.223848 -0.0519188 0.122225 
0.28927 0.194122 -0.028714 
-0.166047 0.167294 -0.579248 
0.278672 -0.0168878 0.190845 
0.346634 0.0242942 0.00317854 
-0.243091 0.422756 -0.527412 
0.427374 -0.0929265 0.48893 
0.174576 -0.0384841 0.520326 
-0.0832265 -0.064017 -0.0707245 
0.212007 0.011682 0.0348375 
-0.00932039 -0.0168315 -0.0978767 
0.29337 -0.081593 0.728805 
-0.4443 -0.473805 -0.029879 
0.204276 0.0804791 -0.0042142 
0.324208 0.0191014 -0.0220799 
0.0313312 0.0475087 0.242689 
0.297656 0.209427 -0.0349398 
-0.344754 0.187014 -0.405472 
0.219565 0.320894 -0.0994431 
0.189506 0.124058 0.349494 
0.290907 -0.0380292 0.203512 
0.185581 -0.00714198 0.513294 
0.405839 -0.185756 0.529445 
-0.0994655 0.110201 -0.462245 
-0.0324017 -0.0549255 0.0169332 
0.21441 0.227892 0.0330925 
0.205222 0.334851 0.00426797 
-0.250819 -0.28133 -0.0178506 
0.151516 -0.0614391 0.0251793 
-0.240777 -0.250951 -0.0186205 
-0.273396 -0.306671 -0.0106531 
0.0998656 -0.0621414 -0.0705256 
-0.0173842 0.253379 -0.0604718 
0.25398 0.116711 0.441426 
0.186313 0.182461 0.281637 
0.477658 -0.102331 0.54124 
0.182213 0.0161265 0.0161505 
0.247546 0.0779321 0.525623 
0.160421 0.227762 -0.0129917 
0.189893 0.0432284 0.438696 
-0.444738 -0.453438 -0.0544056 
0.109337 0.0392908 -0.127682 
0.209318 0.0026653 0.503422 
0.460304 -0.049515 0.458317 
-0.0838101 0.176949 -0.0631928 
0.181174 -0.0691 0.559009 
-0.0661599 -0.14009 -0.0840078 
-0.13511 0.258448 -0.655743 
-0.347875 -0.391892 -0.00596771 
0.362442 -0.0883519 -0.0434439 
0.244385 -0.00182939 0.595804 
0.0116162 0.114424 -0.325143 
0.320085 0.311674 -0.01665 
-0.124438 0.359702 -0.315554 
0.276748 0.0521976 -0.232669 
0.187149 -0.0112108 0.0517047 
-0.310969 -0.330056 0.0145121 
-0.0744501 0.208344 -0.503435 
